# .PCD v.7 - Point Cloud Data file format
VERSION .7
FIELDS x y z rgb
SIZE 4 4 4 1
TYPE F F F I
COUNT 1 1 1 4
WIDTH 1078
HEIGHT 1
VIEWPOINT 0 0 0 1 0 0 0
POINTS 1078
DATA ascii
325.218 409.119 648.861 3824 1636013324 -1 1
594.652 572.047 723.04 3824 1636013328 -1 1
422.202 448 618.523 3824 1636013332 -1 1
625.293 599.798 762.051 3824 1636013336 -1 1
574.886 554.911 693.102 3824 1636013340 -1 1
69.2946 434.312 655.911 3824 1636013344 -1 1
492.886 490.809 678.125 3824 1636013348 -1 1
633.539 611.402 712.648 3824 1636013352 -1 1
625.782 609.924 588.211 3824 1636013356 -1 1
523.321 513.644 637.27 3824 1636013360 -1 1
95.3746 424.343 632.173 3824 1636013364 -1 1
252.71 396.291 613.436 3824 1636013368 -1 1
626.772 603.563 721.227 3824 1636013372 -1 1
252.724 396.388 595.851 3824 1636013376 -1 1
459.871 469.514 640.347 3824 1636013380 -1 1
506.171 500.964 624.152 3824 1636013384 -1 1
476.279 480.006 618.254 3824 1636013388 -1 1
103.471 418.01 650.621 3824 1636013392 -1 1
519.688 510.532 660.208 3824 1636013396 -1 1
492.393 491.486 599.056 3824 1636013400 -1 1
165.934 398.789 661.752 3824 1636013404 -1 1
165.959 398.892 661.772 3824 1636013408 -1 1
314.032 406.191 639.759 3824 1636013412 -1 1
473.848 478.365 670.326 3824 1636013416 -1 1
196.808 397.126 606.793 3824 1636013420 -1 1
321.897 408.335 643.531 3824 1636013424 -1 1
47.4111 436.177 709.358 3824 1636013428 -1 1
91.7411 425.191 638.704 3824 1636013432 -1 1
103.424 417.985 650.738 3824 1636013436 -1 1
186.103 396.187 657.057 3824 1636013440 -1 1
60.4572 432.765 688.145 3824 1636013444 -1 1
484.07 485.178 670.228 3824 1636013448 -1 1
145.162 402.022 674.285 3824 1636013452 -1 1
23.6219 463.598 665.128 3824 1636013456 -1 1
505.125 499.657 636.177 3824 1636013460 -1 1
575.434 558.387 618.441 3824 1636013464 -1 1
28.9729 445.633 714.889 3824 1636013468 -1 1
480.964 483.043 681.279 3824 1636013472 -1 1
85.31 428.226 638.731 3824 1636013476 -1 1
621.911 605.923 586.484 3824 1636013480 -1 1
4.63597 466.271 706.392 3824 1636013484 -1 1
403.116 438.316 644.33 3824 1636013488 -1 1
225.21 394.403 650.168 3824 1636013492 -1 1
174.177 397.76 652.58 3824 1636013496 -1 1
289.451 400.769 636.424 3824 1636013500 -1 1
349.175 416.405 599.816 3824 1636013504 -1 1
152.522 404.726 617.227 3824 1636013508 -1 1
626.181 608.921 622.002 3824 1636013512 -1 1
442.413 459.485 633.089 3824 1636013516 -1 1
415.138 444.759 646.86 3824 1636013520 -1 1
478.685 481.346 605.689 3824 1636013524 -1 1
565.74 546.779 697.347 3824 1636013528 -1 1
186.863 397.702 626.955 3824 1636013532 -1 1
451.473 464.805 604.08 3824 1636013536 -1 1
513.384 506.404 640.719 3824 1636013540 -1 1
501.901 497.827 630.521 3824 1636013544 -1 1
457.298 467.849 606.748 3824 1636013548 -1 1
393.722 434.176 609.227 3824 1636013552 -1 1
101.57 421.935 629.019 3824 1636013556 -1 1
135.022 409.982 620.335 3824 1636013560 -1 1
417.879 446.174 641.013 3824 1636013564 -1 1
259.349 396.755 594.524 3824 1636013568 -1 1
43.8235 452.608 649.065 3824 1636013572 -1 1
335.154 411.834 591.666 3824 1636013576 -1 1
563.378 545.191 689.44 3824 1636013580 -1 1
248.139 395.75 633.249 3824 1636013584 -1 1
138.447 405.233 655.773 3824 1636013588 -1 1
458.332 468.95 630.639 3824 1636013592 -1 1
465.797 473.609 616.054 3824 1636013596 -1 1
461.316 470.705 649.679 3824 1636013600 -1 1
446.607 461.94 603.517 3824 1636013604 -1 1
459.144 468.919 616.709 3824 1636013608 -1 1
589.945 571.222 643.093 3824 1636013612 -1 1
573.543 556.597 617.89 3824 1636013616 -1 1
-19.2145 489.429 704.607 3824 1636013620 -1 1
246.44 396.186 600.37 3824 1636013624 -1 1
470.964 476.633 672.075 3824 1636013628 -1 1
637.477 620.138 645.865 3824 1636013632 -1 1
473.471 478.166 669.001 3824 1636013636 -1 1
472.697 478.033 622.032 3824 1636013640 -1 1
632.663 611.966 686.344 3824 1636013644 -1 1
284.681 400.328 627.915 3824 1636013648 -1 1
252.004 396.129 632.448 3824 1636013652 -1 1
173.672 397.354 664.788 3824 1636013656 -1 1
474.401 478.68 612.335 3824 1636013660 -1 1
191.025 398.228 603.133 3824 1636013664 -1 1
624.164 600.816 725.009 3824 1636013668 -1 1
511.723 505.103 624.742 3824 1636013672 -1 1
221.873 395.811 604.15 3824 1636013676 -1 1
484.314 486.027 606.401 3824 1636013680 -1 1
432.521 453.708 645.58 3824 1636013684 -1 1
136.691 405.461 655.9 3824 1636013688 -1 1
623.64 600.653 727.358 3824 1636013692 -1 1
90.452 426.387 633.072 3824 1636013696 -1 1
409.811 442.153 626.297 3824 1636013700 -1 1
578.152 557.145 716.967 3824 1636013704 -1 1
562.475 544.416 679.424 3824 1636013708 -1 1
599.276 577.474 705.459 3824 1636013712 -1 1
68.0486 432.322 669.019 3824 1636013716 -1 1
148.705 401.628 668.768 3824 1636013720 -1 1
-8.2666 481.319 697.909 3824 1636013724 -1 1
-14.7961 489.363 694.563 3824 1636013728 -1 1
527.287 515.654 674.758 3824 1636013732 -1 1
624.227 608.571 593.634 3824 1636013736 -1 1
459.583 469.443 609.204 3824 1636013740 -1 1
337.372 413.223 653.273 3824 1636013744 -1 1
-11.2923 495.004 670.233 3824 1636013748 -1 1
169.05 398.561 652.831 3824 1636013752 -1 1
591.076 573.247 620.912 3824 1636013756 -1 1
640.429 623.073 651.965 3824 1636013760 -1 1
68.0396 432.125 668.729 3824 1636013764 -1 1
604.384 581.857 706.654 3824 1636013768 -1 1
614.352 597.497 597.208 3824 1636013772 -1 1
-13.4836 467.472 747.985 3824 1636013776 -1 1
96.6636 422.776 636.788 3824 1636013780 -1 1
553.688 535.8 724.549 3824 1636013784 -1 1
506.281 500.317 676.897 3824 1636013788 -1 1
213.457 394.333 658.313 3824 1636013792 -1 1
-14.5391 471.416 739.888 3824 1636013796 -1 1
434.946 454.855 652.159 3824 1636013800 -1 1
16.7132 472.32 659.336 3824 1636013804 -1 1
130.335 412.246 618.989 3824 1636013808 -1 1
590.315 572.653 612.314 3824 1636013812 -1 1
249.837 396.107 630.956 3824 1636013816 -1 1
11.9003 449.183 747.797 3824 1636013820 -1 1
636.361 618.172 657.634 3824 1636013824 -1 1
482.193 484.086 613.186 3824 1636013828 -1 1
544.482 528.639 716.722 3824 1636013832 -1 1
249.666 396.002 628.781 3824 1636013836 -1 1
621.551 604.991 595.798 3824 1636013840 -1 1
-4.71386 492.582 661.812 3824 1636013844 -1 1
366.147 422.437 637.355 3824 1636013848 -1 1
71.0824 432.144 666.52 3824 1636013852 -1 1
548.05 533.475 641.96 3824 1636013856 -1 1
71.2686 431.625 666.211 3824 1636013860 -1 1
503.828 498.862 639.626 3824 1636013864 -1 1
8.7621 471.365 681.628 3824 1636013868 -1 1
13.5268 475.507 656.547 3824 1636013872 -1 1
613.925 597.095 589.072 3824 1636013876 -1 1
347.396 416.336 595.504 3824 1636013880 -1 1
549.613 534.401 649.008 3824 1636013884 -1 1
551.177 533.982 712.345 3824 1636013888 -1 1
113.055 412.172 669.092 3824 1636013892 -1 1
562.858 544.913 681.716 3824 1636013896 -1 1
362.386 421.699 610.64 3824 1636013900 -1 1
500.913 497.352 633.88 3824 1636013904 -1 1
350.249 416.713 605.344 3824 1636013908 -1 1
462.976 471.793 617.244 3824 1636013912 -1 1
289.74 400.702 644.611 3824 1636013916 -1 1
533.035 521.8 599.647 3824 1636013920 -1 1
523.406 512.452 672.891 3824 1636013924 -1 1
477.574 481.188 617.114 3824 1636013928 -1 1
320.516 407.701 597.384 3824 1636013932 -1 1
416.252 445.313 644.819 3824 1636013936 -1 1
4.6136 475.59 681.369 3824 1636013940 -1 1
597.159 579.316 599.118 3824 1636013944 -1 1
4.53496 475.586 681.475 3824 1636013948 -1 1
637.455 619.335 649.391 3824 1636013952 -1 1
411.897 443.324 647.122 3824 1636013956 -1 1
362.354 421.363 610.236 3824 1636013960 -1 1
464.071 472.757 656.595 3824 1636013964 -1 1
112.825 412.477 668.432 3824 1636013968 -1 1
439.024 457.3 591.584 3824 1636013972 -1 1
218.47 395.454 611.499 3824 1636013976 -1 1
496.47 493.808 637.9 3824 1636013980 -1 1
41.0269 453.506 654.111 3824 1636013984 -1 1
36.9997 441.02 713.405 3824 1636013988 -1 1
487.666 488.705 593.3 3824 1636013992 -1 1
252.814 396.273 628.292 3824 1636013996 -1 1
569.376 551.966 644.651 3824 1636014000 -1 1
407.595 440.795 617.13 3824 1636014004 -1 1
279.488 399.318 624.553 3824 1636014008 -1 1
59.8 435.57 674.378 3824 1636014012 -1 1
473.553 478.239 658.233 3824 1636014016 -1 1
37.3712 444.777 699.221 3824 1636014020 -1 1
417.727 445.856 623.868 3824 1636014024 -1 1
469.305 475.519 619.911 3824 1636014028 -1 1
475.161 478.843 685.582 3824 1636014032 -1 1
46.9885 435.459 713.084 3824 1636014036 -1 1
470.158 476.021 617.207 3824 1636014040 -1 1
278.424 398.97 645.351 3824 1636014044 -1 1
467.333 474.278 636.662 3824 1636014048 -1 1
481.737 483.647 608.324 3824 1636014052 -1 1
178.163 397.423 647.538 3824 1636014056 -1 1
613.159 591.181 700.601 3824 1636014060 -1 1
445.164 460.866 606.303 3824 1636014064 -1 1
462.895 471.598 615.749 3824 1636014068 -1 1
456.443 467.264 637.594 3824 1636014072 -1 1
253.069 395.699 630.313 3824 1636014076 -1 1
616.959 593.737 715.059 3824 1636014080 -1 1
49.684 440.251 687.023 3824 1636014084 -1 1
470.281 476.309 616.671 3824 1636014088 -1 1
408.94 441.345 636.556 3824 1636014092 -1 1
510.103 503.208 676.428 3824 1636014096 -1 1
478.327 481.002 593.364 3824 1636014100 -1 1
253.1 395.929 630.77 3824 1636014104 -1 1
320.879 408.71 618.771 3824 1636014108 -1 1
118.299 414.547 629.935 3824 1636014112 -1 1
13.543 470.495 670.702 3824 1636014116 -1 1
324.84 409.231 641.747 3824 1636014120 -1 1
-3.29194 468.666 721.306 3824 1636014124 -1 1
253.504 396.466 605.691 3824 1636014128 -1 1
546.796 531.624 670.965 3824 1636014132 -1 1
431.979 453.087 597.084 3824 1636014136 -1 1
497.689 494.536 668.248 3824 1636014140 -1 1
1.10534 470.907 702.541 3824 1636014144 -1 1
432.21 453.667 666.838 3824 1636014148 -1 1
462.431 471.796 599.979 3824 1636014152 -1 1
606.719 590.049 593.753 3824 1636014156 -1 1
510.095 503.2 629.101 3824 1636014160 -1 1
8.70407 456.131 731.7 3824 1636014164 -1 1
185.922 395.96 660.834 3824 1636014168 -1 1
547.007 532.407 641.948 3824 1636014172 -1 1
97.056 424.302 623.328 3824 1636014176 -1 1
256.424 396.725 596.162 3824 1636014180 -1 1
603.651 583.002 673.302 3824 1636014184 -1 1
451.149 464.234 625.059 3824 1636014188 -1 1
302.135 403.312 629.534 3824 1636014192 -1 1
622.486 601.067 698.364 3824 1636014196 -1 1
347.635 415.767 594.915 3824 1636014200 -1 1
93.6514 423.818 640.833 3824 1636014204 -1 1
530.155 518.537 666.203 3824 1636014208 -1 1
313.546 405.947 628.03 3824 1636014212 -1 1
369.023 424.13 650.095 3824 1636014216 -1 1
622.611 603.163 662.431 3824 1636014220 -1 1
8.54054 477.048 665.336 3824 1636014224 -1 1
352.376 417.442 599.414 3824 1636014228 -1 1
563.75 546.31 663 3824 1636014232 -1 1
260.963 396.967 615.497 3824 1636014236 -1 1
101.492 414.224 687.386 3824 1636014240 -1 1
475.799 479.479 625.969 3824 1636014244 -1 1
186.201 396.301 615.871 3824 1636014248 -1 1
618.105 601.429 616.139 3824 1636014252 -1 1
377.067 427.281 631.513 3824 1636014256 -1 1
65.1244 435.327 662.247 3824 1636014260 -1 1
20.679 466.254 666.052 3824 1636014264 -1 1
131.5 406.729 662.7 3824 1636014268 -1 1
428.203 451.762 646.297 3824 1636014272 -1 1
331.835 411.007 619.972 3824 1636014276 -1 1
5.48769 479.201 668.746 3824 1636014280 -1 1
409.893 441.89 633.794 3824 1636014284 -1 1
15.4775 458.594 704.109 3824 1636014288 -1 1
139.033 408.332 620.588 3824 1636014292 -1 1
616.202 593.299 714.088 3824 1636014296 -1 1
-6.21448 484.381 684.811 3824 1636014300 -1 1
395.827 434.985 593.273 3824 1636014304 -1 1
486.524 487.246 607.051 3824 1636014308 -1 1
184.734 397.6 627.068 3824 1636014312 -1 1
480.835 482.894 598.95 3824 1636014316 -1 1
542.771 528.9 641.971 3824 1636014320 -1 1
248.173 395.463 609.1 3824 1636014324 -1 1
104.082 415.455 670.507 3824 1636014328 -1 1
237.725 395.123 632.309 3824 1636014332 -1 1
396.719 435.288 602.677 3824 1636014336 -1 1
138.873 408.285 621.552 3824 1636014340 -1 1
214.157 394.701 654.693 3824 1636014344 -1 1
448.906 463.603 653.295 3824 1636014348 -1 1
151.119 402.766 647.061 3824 1636014352 -1 1
27.9206 441.439 738.524 3824 1636014356 -1 1
8.69366 477.017 665.08 3824 1636014360 -1 1
479.935 482.265 674.801 3824 1636014364 -1 1
579.161 558.435 699.195 3824 1636014368 -1 1
203.132 394.927 650.747 3824 1636014372 -1 1
623.797 599.516 741.857 3824 1636014376 -1 1
63.7175 436.296 663.115 3824 1636014380 -1 1
518.27 509.085 685.105 3824 1636014384 -1 1
238.781 395.393 641.363 3824 1636014388 -1 1
-19.7229 490.589 701.068 3824 1636014392 -1 1
240.466 395.283 634.721 3824 1636014396 -1 1
178.066 397.33 654.894 3824 1636014400 -1 1
-15.0811 482.199 710.246 3824 1636014404 -1 1
513.167 505.741 646.718 3824 1636014408 -1 1
213.849 395.846 612.025 3824 1636014412 -1 1
258.62 396.928 629.917 3824 1636014416 -1 1
434.314 454.657 598.78 3824 1636014420 -1 1
469.814 476.023 662.657 3824 1636014424 -1 1
210.056 394.648 654.349 3824 1636014428 -1 1
600.948 578.777 694.916 3824 1636014432 -1 1
12.4003 468.439 679.507 3824 1636014436 -1 1
620.72 601.341 654.616 3824 1636014440 -1 1
26.2702 459.876 671.358 3824 1636014444 -1 1
28.0736 441.542 737.607 3824 1636014448 -1 1
318.357 407.308 601.929 3824 1636014452 -1 1
531.338 520.239 628.067 3824 1636014456 -1 1
121.11 410.115 660.278 3824 1636014460 -1 1
405.605 439.468 625.958 3824 1636014464 -1 1
9.97387 472.556 674.898 3824 1636014468 -1 1
621.073 599.906 677.569 3824 1636014472 -1 1
14.5372 456.501 713.022 3824 1636014476 -1 1
-7.14795 491.892 666.083 3824 1636014480 -1 1
193.983 395.753 646.894 3824 1636014484 -1 1
114.812 413.664 654.245 3824 1636014488 -1 1
8.57042 463.253 706.152 3824 1636014492 -1 1
187.013 397.003 637.936 3824 1636014496 -1 1
464.844 472.653 629.829 3824 1636014500 -1 1
433.568 454.404 605.981 3824 1636014504 -1 1
10.1244 472.569 674.697 3824 1636014508 -1 1
5.73607 481.947 659.922 3824 1636014512 -1 1
482.213 484.01 602.802 3824 1636014516 -1 1
436.834 456.197 637.087 3824 1636014520 -1 1
488.521 488.329 593.511 3824 1636014524 -1 1
504.909 498.767 688.565 3824 1636014528 -1 1
632.739 610.436 716.867 3824 1636014532 -1 1
263.408 396.967 595.622 3824 1636014536 -1 1
609.399 588.67 678.638 3824 1636014540 -1 1
474.251 478.994 606.456 3824 1636014544 -1 1
589.18 571.658 605.701 3824 1636014548 -1 1
508.415 502.703 613.066 3824 1636014552 -1 1
544.95 530.769 641.008 3824 1636014556 -1 1
536.79 524.09 657.755 3824 1636014560 -1 1
404.821 439.536 617.127 3824 1636014564 -1 1
527.18 515.904 670.876 3824 1636014568 -1 1
604.315 586.263 615.085 3824 1636014572 -1 1
503.686 498.139 650.259 3824 1636014576 -1 1
263.419 397.154 595.41 3824 1636014580 -1 1
-2.26063 476.401 697.37 3824 1636014584 -1 1
313.366 405.918 595.092 3824 1636014588 -1 1
549.773 534.513 656.411 3824 1636014592 -1 1
531.115 520.334 621.234 3824 1636014596 -1 1
14.1233 471.752 667.078 3824 1636014600 -1 1
74.2048 430.375 662.328 3824 1636014604 -1 1
268.09 397.801 623.679 3824 1636014608 -1 1
516.885 508.242 666.009 3824 1636014612 -1 1
500.306 495.603 675.155 3824 1636014616 -1 1
555.16 538.42 668.501 3824 1636014620 -1 1
564.831 548.118 638.446 3824 1636014624 -1 1
10.346 450.864 745.164 3824 1636014628 -1 1
604.665 582.098 702.414 3824 1636014632 -1 1
313.371 406.134 595.227 3824 1636014636 -1 1
98.5953 422.366 640.282 3824 1636014640 -1 1
368.991 423.694 588.791 3824 1636014644 -1 1
319.117 407.754 636.65 3824 1636014648 -1 1
420.752 447.808 645.801 3824 1636014652 -1 1
227.518 394.254 643.184 3824 1636014656 -1 1
178.948 397.603 647.328 3824 1636014660 -1 1
504.445 499.566 645.012 3824 1636014664 -1 1
580.49 558.989 717.422 3824 1636014668 -1 1
620.778 601.61 653.912 3824 1636014672 -1 1
542.389 528.523 641.623 3824 1636014676 -1 1
162.934 400.631 642.029 3824 1636014680 -1 1
270.435 398.364 633.548 3824 1636014684 -1 1
322.704 408.267 621.39 3824 1636014688 -1 1
259.597 396.835 606.345 3824 1636014692 -1 1
619.889 598.996 682.144 3824 1636014696 -1 1
502.629 498.377 634.259 3824 1636014700 -1 1
496.4 492.045 694.731 3824 1636014704 -1 1
445.728 461.964 624.713 3824 1636014708 -1 1
18.1279 470.311 659.19 3824 1636014712 -1 1
589.072 572.083 596.664 3824 1636014716 -1 1
514.311 506.033 681.875 3824 1636014720 -1 1
430.334 452.372 621.141 3824 1636014724 -1 1
409.611 442.011 607.647 3824 1636014728 -1 1
5.8131 451.436 753.59 3824 1636014732 -1 1
179.465 398.014 640.824 3824 1636014736 -1 1
613.097 595.59 621.736 3824 1636014740 -1 1
439.714 457.844 603.32 3824 1636014744 -1 1
244.714 395.505 615.903 3824 1636014748 -1 1
313.382 405.753 608.269 3824 1636014752 -1 1
350.549 417.063 643.734 3824 1636014756 -1 1
507.579 502 645.537 3824 1636014760 -1 1
542.441 528.991 635.901 3824 1636014764 -1 1
369.007 424.137 589.206 3824 1636014768 -1 1
573.38 555.494 640.516 3824 1636014772 -1 1
235.274 394.733 646.47 3824 1636014776 -1 1
536.872 525.657 584.579 3824 1636014780 -1 1
426.375 450.761 627.053 3824 1636014784 -1 1
189.483 397.328 637.574 3824 1636014788 -1 1
529.345 518.873 600.788 3824 1636014792 -1 1
335.582 413.725 615.746 3824 1636014796 -1 1
152.128 402.284 648.496 3824 1636014800 -1 1
491.657 490.473 652.61 3824 1636014804 -1 1
609.076 589.826 636.656 3824 1636014808 -1 1
276.725 398.651 616.921 3824 1636014812 -1 1
587.392 567.215 680.832 3824 1636014816 -1 1
514.2 506.196 681.768 3824 1636014820 -1 1
-0.749791 479.864 680.259 3824 1636014824 -1 1
71.8071 432.145 659.359 3824 1636014828 -1 1
603.442 580.903 711.518 3824 1636014832 -1 1
275.295 397.932 614.004 3824 1636014836 -1 1
306.181 404.185 612.493 3824 1636014840 -1 1
531.397 518.913 685.077 3824 1636014844 -1 1
555.239 538.564 667.943 3824 1636014848 -1 1
-7.03696 478.889 700.879 3824 1636014852 -1 1
86.9216 423.897 659.952 3824 1636014856 -1 1
535.342 522.977 646.334 3824 1636014860 -1 1
98.0943 414.004 696.997 3824 1636014864 -1 1
429.535 452.046 641.995 3824 1636014868 -1 1
378.138 427.528 619.99 3824 1636014872 -1 1
-11.2903 474.075 727.471 3824 1636014876 -1 1
211.603 396.06 609.942 3824 1636014880 -1 1
542.379 528.393 633.991 3824 1636014884 -1 1
43.7861 436.206 718.873 3824 1636014888 -1 1
542.402 528.648 633.975 3824 1636014892 -1 1
604.337 584.306 664.161 3824 1636014896 -1 1
207.501 395.595 637.252 3824 1636014900 -1 1
646.286 631.733 619.195 3824 1636014904 -1 1
333.122 411.613 634.576 3824 1636014908 -1 1
303.509 404.262 612.849 3824 1636014912 -1 1
378.199 427.337 620.252 3824 1636014916 -1 1
341.332 413.442 636.626 3824 1636014920 -1 1
612.937 591.031 688.055 3824 1636014924 -1 1
61.0034 545.559 129.465 3824 1636014928 -1 1
333.746 411.21 612.376 3824 1636014932 -1 1
598.678 576.955 700.323 3824 1636014936 -1 1
466.518 473.942 671.364 3824 1636014940 -1 1
151.197 401.158 661.786 3824 1636014944 -1 1
532.194 519.518 654.382 3824 1636014948 -1 1
502.118 497.847 619.51 3824 1636014952 -1 1
95.1854 417.072 683.106 3824 1636014956 -1 1
499.352 494.39 693.593 3824 1636014960 -1 1
80.3126 422.272 690.225 3824 1636014964 -1 1
35.856 455.058 661.529 3824 1636014968 -1 1
14.4553 453.555 724.339 3824 1636014972 -1 1
14.1742 462.963 694.244 3824 1636014976 -1 1
532.192 520.016 654.894 3824 1636014980 -1 1
384.242 430.209 623.172 3824 1636014984 -1 1
410.457 441.331 648.004 3824 1636014988 -1 1
32.9069 454.87 670.04 3824 1636014992 -1 1
284.458 399.902 633.904 3824 1636014996 -1 1
197.554 395.689 646.878 3824 1636015000 -1 1
151.415 401.863 658.193 3824 1636015004 -1 1
153.97 404.424 621.405 3824 1636015008 -1 1
292.338 400.955 614.432 3824 1636015012 -1 1
10.9299 453.367 734.1 3824 1636015016 -1 1
518.019 509.458 633.77 3824 1636015020 -1 1
205.186 395.394 607.676 3824 1636015024 -1 1
32.8572 453.767 675.668 3824 1636015028 -1 1
512.068 503.832 697.557 3824 1636015032 -1 1
319.618 407.631 598.32 3824 1636015036 -1 1
390.127 432.672 613.907 3824 1636015040 -1 1
477.114 480.951 598.89 3824 1636015044 -1 1
499.315 496.337 611.197 3824 1636015048 -1 1
347.181 416.522 612.827 3824 1636015052 -1 1
599.832 580.594 642.815 3824 1636015056 -1 1
12.9456 452.328 733.12 3824 1636015060 -1 1
8.86236 468.922 688.191 3824 1636015064 -1 1
327.546 409.164 597.605 3824 1636015068 -1 1
4.52407 454.903 747.04 3824 1636015072 -1 1
395.965 435.319 632.26 3824 1636015076 -1 1
4.65052 455.108 743.981 3824 1636015080 -1 1
569.843 550.248 700.976 3824 1636015084 -1 1
363.514 421.389 597.614 3824 1636015088 -1 1
41.6741 444.838 684.098 3824 1636015092 -1 1
49.3517 437.567 696.649 3824 1636015096 -1 1
304.893 404.048 599.002 3824 1636015100 -1 1
492.623 490.967 668.316 3824 1636015104 -1 1
489.568 488.875 670.657 3824 1636015108 -1 1
69.9148 423.589 714.008 3824 1636015112 -1 1
450.337 463.87 636.823 3824 1636015116 -1 1
144.263 404.039 651.28 3824 1636015120 -1 1
292.932 401.333 614.02 3824 1636015124 -1 1
113.273 411.477 675.211 3824 1636015128 -1 1
373.465 425.564 605.2 3824 1636015132 -1 1
306.168 404.266 587.815 3824 1636015136 -1 1
381.311 428.906 592.367 3824 1636015140 -1 1
-13.5768 474.315 731.373 3824 1636015144 -1 1
585.718 565.536 678.312 3824 1636015148 -1 1
35.5117 451.471 676.405 3824 1636015152 -1 1
148.692 404.113 641.072 3824 1636015156 -1 1
551.124 535.673 611.216 3824 1636015160 -1 1
203.208 395.719 634.383 3824 1636015164 -1 1
75.5865 431.652 648.247 3824 1636015168 -1 1
192.139 396.15 649.161 3824 1636015172 -1 1
329.11 409.552 609.591 3824 1636015176 -1 1
459.083 469.161 665.601 3824 1636015180 -1 1
577.409 559.259 638.505 3824 1636015184 -1 1
326.025 409.046 630.585 3824 1636015188 -1 1
245.92 396.742 618.325 3824 1636015192 -1 1
514.485 507.081 624.439 3824 1636015196 -1 1
78.6322 429.927 649.847 3824 1636015200 -1 1
158.791 400.463 651.953 3824 1636015204 -1 1
400.063 405.477 622.391 920 33601432 -1 1
461.549 389.418 616.237 920 33601436 -1 1
423.731 398.246 620.305 920 33601440 -1 1
461.414 389.458 616.159 920 33601444 -1 1
484.165 384.902 674.898 920 33601448 -1 1
489.579 384.928 624.009 920 33601452 -1 1
538.129 379.49 667.728 920 33601456 -1 1
344.217 428.93 595.576 920 33601460 -1 1
481.887 385.245 673.932 920 33601464 -1 1
456.568 390.47 606.713 920 33601468 -1 1
470.49 387.169 669.853 920 33601472 -1 1
465.278 388.825 620.303 920 33601476 -1 1
488.374 385.633 610.934 920 33601480 -1 1
229.343 518.884 613.765 920 33601484 -1 1
560.41 379.84 631.24 920 33601488 -1 1
473.495 386.911 663.961 920 33601492 -1 1
494.857 384.78 601.214 920 33601496 -1 1
266.143 482.221 617.778 920 33601500 -1 1
463.217 389.181 610.249 920 33601504 -1 1
473.084 387.365 619.612 920 33601508 -1 1
465.844 388.911 612.845 920 33601512 -1 1
489.799 384.854 629.053 920 33601516 -1 1
347.152 427.367 584.11 920 33601520 -1 1
396.731 406.692 622.358 920 33601524 -1 1
685.067 392.344 618.639 920 33601528 -1 1
589.779 377.542 685.023 920 33601532 -1 1
353.411 424.43 583.374 920 33601536 -1 1
453.269 391.322 617.459 920 33601540 -1 1
520.94 380.396 682.915 920 33601544 -1 1
646.434 380.85 700.483 920 33601548 -1 1
522.053 380.072 681.769 920 33601552 -1 1
550.462 379.86 626.305 920 33601556 -1 1
485.677 385.002 648.517 920 33601560 -1 1
517.453 380.369 690.013 920 33601564 -1 1
372.029 416.374 656.553 920 33601568 -1 1
646.529 380.898 700.623 920 33601572 -1 1
509.518 382.065 643.351 920 33601576 -1 1
486.983 385.24 621.513 920 33601580 -1 1
517.389 380.437 689.838 920 33601584 -1 1
478.121 386.674 621.349 920 33601588 -1 1
463.984 389.444 626.427 920 33601592 -1 1
577.369 376.562 722.368 920 33601596 -1 1
474.63 386.978 640.271 920 33601600 -1 1
418.847 399.51 625.1 920 33601604 -1 1
220.996 528.347 614.94 920 33601608 -1 1
397.066 406.564 595.829 920 33601612 -1 1
430.194 396.484 647.621 920 33601616 -1 1
488.081 386.127 599.326 920 33601620 -1 1
676.449 392.098 578.359 920 33601624 -1 1
131.418 684.055 640.648 920 33601628 -1 1
402.268 404.794 617.641 920 33601632 -1 1
396.654 406.555 603.634 920 33601636 -1 1
458.755 389.924 628.169 920 33601640 -1 1
409.501 402.553 637.834 920 33601644 -1 1
129.998 684.429 650.795 920 33601648 -1 1
357.876 422.543 630.263 920 33601652 -1 1
437.986 394.554 605.631 920 33601656 -1 1
501.466 382.477 686.46 920 33601660 -1 1
272.944 476.301 614.603 920 33601664 -1 1
257.137 489.707 635.392 920 33601668 -1 1
271.082 477.526 630.225 920 33601672 -1 1
658.86 382.25 696.287 920 33601676 -1 1
437.158 394.719 600.499 920 33601680 -1 1
617.003 376.69 730.983 920 33601684 -1 1
675.384 390.981 602.816 920 33601688 -1 1
637.77 378.76 716.185 920 33601692 -1 1
415.386 400.619 642.55 920 33601696 -1 1
638.523 379.301 713.353 920 33601700 -1 1
405.151 403.734 618.043 920 33601704 -1 1
463 388.992 649.251 920 33601708 -1 1
695.901 393.101 627.75 920 33601712 -1 1
440.009 394.052 614.65 920 33601716 -1 1
494.924 383.537 690.697 920 33601720 -1 1
580.804 377.379 700.476 920 33601724 -1 1
515.286 380.617 685.004 920 33601728 -1 1
483.078 385.585 645.98 920 33601732 -1 1
262.729 484.987 617.778 920 33601736 -1 1
648.97 386.98 606.724 920 33601740 -1 1
687.735 383.91 720.317 920 33601744 -1 1
545.443 379.108 670.539 920 33601748 -1 1
508.297 381.523 700.413 920 33601752 -1 1
652.909 388.325 601.689 920 33601756 -1 1
492.725 385.019 608.077 920 33601760 -1 1
672.913 379.242 760.657 920 33601764 -1 1
399.082 405.752 644.067 920 33601768 -1 1
612.207 380.248 662.374 920 33601772 -1 1
374.878 414.918 589.277 920 33601776 -1 1
563.056 378.737 661.322 920 33601780 -1 1
411.025 402.028 649.71 920 33601784 -1 1
233.427 513.163 636.92 920 33601788 -1 1
431.669 396.128 643.781 920 33601792 -1 1
473.955 386.626 670.14 920 33601796 -1 1
667.854 384.018 687.654 920 33601800 -1 1
395.99 406.897 642.806 920 33601804 -1 1
567.925 379.281 644.428 920 33601808 -1 1
568.156 379.549 646.794 920 33601812 -1 1
613.187 379.382 678.599 920 33601816 -1 1
672.541 389.041 629.659 920 33601820 -1 1
389.829 409.965 627.51 920 33601824 -1 1
602.89 378.207 686.631 920 33601828 -1 1
486.645 385.874 603.602 920 33601832 -1 1
298.989 456.168 615.048 920 33601836 -1 1
390.1 410.23 627.85 920 33601840 -1 1
644.115 378.059 731.056 920 33601844 -1 1
497.885 382.861 694.034 920 33601848 -1 1
349.709 426.945 637.909 920 33601852 -1 1
623.687 382.028 642.911 920 33601856 -1 1
556.178 379.519 622.638 920 33601860 -1 1
434.22 395.436 632.674 920 33601864 -1 1
589.088 376.48 717.408 920 33601868 -1 1
448.298 393.202 593.874 920 33601872 -1 1
605.648 375.441 745.128 920 33601876 -1 1
152.183 641.188 619.836 920 33601880 -1 1
419.108 400.201 618.443 920 33601884 -1 1
485.398 385.052 654.717 920 33601888 -1 1
328.92 598.594 641.142 2696 2038530696 -1 1
328.338 603.366 654.257 2696 2038530700 -1 1
347.711 455.439 647.726 2696 2038530704 -1 1
387.895 358.9 619.171 2696 2038530708 -1 1
339.692 711.183 619.6 2696 2038530712 -1 1
336.525 686.271 607.163 2696 2038530716 -1 1
409.121 326.525 615.788 2696 2038530720 -1 1
440.588 286.038 670.554 2696 2038530724 -1 1
352.653 439.138 603.385 2696 2038530728 -1 1
360.212 417.407 615.769 2696 2038530732 -1 1
382.577 368.52 618.678 2696 2038530736 -1 1
342.17 737.995 653.001 2696 2038530740 -1 1
434.933 291.531 683.773 2696 2038530744 -1 1
411.44 322.736 643.204 2696 2038530748 -1 1
328.595 616.181 651.584 2696 2038530752 -1 1
333.36 676.947 642.354 2696 2038530756 -1 1
349.052 775.943 668.295 2696 2038530760 -1 1
406.352 330.836 606.286 2696 2038530764 -1 1
349.356 755.496 607.79 2696 2038530768 -1 1
350.391 774.811 649.327 2696 2038530772 -1 1
383.811 365.804 646.628 2696 2038530776 -1 1
340.809 737.57 667.519 2696 2038530780 -1 1
412.163 321.202 652.232 2696 2038530784 -1 1
377.752 377.809 644.16 2696 2038530788 -1 1
346.588 458.662 642.217 2696 2038530792 -1 1
350.342 774.948 648.56 2696 2038530796 -1 1
334.116 678.039 626.355 2696 2038530800 -1 1
328.528 595.842 649.499 2696 2038530804 -1 1
425.717 302.448 685.506 2696 2038530808 -1 1
339.019 720.539 653.475 2696 2038530812 -1 1
375.839 381.327 595.383 2696 2038530816 -1 1
334.482 521.236 620.806 2696 2038530820 -1 1
348.373 451.961 636.061 2696 2038530824 -1 1
361.692 411.885 652.905 2696 2038530828 -1 1
335.632 679.288 601.406 2696 2038530832 -1 1
408.29 329.532 604.807 2696 2038530836 -1 1
358.099 797.791 629.885 2696 2038530840 -1 1
331.428 559.779 599.419 2696 2038530844 -1 1
401.684 337.638 599.646 2696 2038530848 -1 1
411.139 323.406 619.833 2696 2038530852 -1 1
329.486 569.253 632.156 2696 2038530856 -1 1
403.049 335.415 605.678 2696 2038530860 -1 1
419.427 313.695 601.543 2696 2038530864 -1 1
417.005 315.79 627.704 2696 2038530868 -1 1
421.174 310.647 626.332 2696 2038530872 -1 1
420.029 309.532 672.242 2696 2038530876 -1 1
418.7 311.493 675.312 2696 2038530880 -1 1
415.101 316.66 662.526 2696 2038530884 -1 1
339.327 488.895 647.838 2696 2038530888 -1 1
399.91 338.937 634.319 2696 2038530892 -1 1
351.455 443.126 652.083 2696 2038530896 -1 1
410.521 323.905 633.197 2696 2038530900 -1 1
433.736 297.501 609.867 2696 2038530904 -1 1
572.056 176.551 749.996 2696 2038530908 -1 1
328.865 607.701 643.728 2696 2038530912 -1 1
396.119 345.508 592.864 2696 2038530916 -1 1
330.078 581.519 601.606 2696 2038530920 -1 1
352.901 437.906 651.049 2696 2038530924 -1 1
329.04 607.69 643.996 2696 2038530928 -1 1
329.036 613.027 643.236 2696 2038530932 -1 1
354.757 786.677 628.202 2696 2038530936 -1 1
338.793 712.812 634.056 2696 2038530940 -1 1
410.405 325.377 610.134 2696 2038530944 -1 1
395.221 347.535 611.434 2696 2038530948 -1 1
333.346 672.027 636.071 2696 2038530952 -1 1
344.558 466.974 636.06 2696 2038530956 -1 1
357.83 792.781 619.308 2696 2038530960 -1 1
408.439 327.168 625.045 2696 2038530964 -1 1
356.42 798.315 644.465 2696 2038530968 -1 1
340.042 485.854 637.121 2696 2038530972 -1 1
330.4 645.009 640.293 2696 2038530976 -1 1
344.584 768.977 703.034 2696 2038530980 -1 1
393.129 349.403 671.102 2696 2038530984 -1 1
347.542 767.234 658.56 2696 2038530988 -1 1
361.16 414.238 636.201 2696 2038530992 -1 1
338.571 492.418 644.201 2696 2038530996 -1 1
393.694 348.994 646.365 2696 2038531000 -1 1
443.04 283.106 674.631 2696 2038531004 -1 1
439.403 286.743 693.302 2696 2038531008 -1 1
385.295 363.161 623.995 2696 2038531012 -1 1
349.169 449.717 624.597 2696 2038531016 -1 1
404.18 333.571 616.666 2696 2038531020 -1 1
407.649 329.206 628.004 2696 2038531024 -1 1
357.17 794.189 631.353 2696 2038531028 -1 1
332.523 662.482 637.293 2696 2038531032 -1 1
355.798 430.007 603.983 2696 2038531036 -1 1
330.081 636.742 637.501 2696 2038531040 -1 1
409.595 325.59 622.034 2696 2038531044 -1 1
418.703 314.049 624.11 2696 2038531048 -1 1
330.073 636.768 637.652 2696 2038531052 -1 1
338.396 709.328 631.738 2696 2038531056 -1 1
413.569 318.451 658.437 2696 2038531060 -1 1
563.611 181.058 751.14 2696 2038531064 -1 1
384.483 364.506 644.788 2696 2038531068 -1 1
349.912 770.077 640.638 2696 2038531072 -1 1
332.42 536.469 632.55 2696 2038531076 -1 1
420.935 307.977 688.95 2696 2038531080 -1 1
338.108 717.252 663.271 2696 2038531084 -1 1
338.636 712.665 638.891 2696 2038531088 -1 1
375.648 381.767 590.11 2696 2038531092 -1 1
332.003 668.379 648.927 2696 2038531096 -1 1
339.626 720.656 642.239 2696 2038531100 -1 1
329.465 636.909 651.25 2696 2038531104 -1 1
424.772 305.954 621.852 2696 2038531108 -1 1
412.869 320.528 640.476 2696 2038531112 -1 1
337.823 694.86 613.149 2696 2038531116 -1 1
402.118 336.559 607.812 2696 2038531120 -1 1
332.705 672.066 645.558 2696 2038531124 -1 1
441.478 283.844 689.997 2696 2038531128 -1 1
420.687 309.569 662.014 2696 2038531132 -1 1
334.306 525.157 594.42 2696 2038531136 -1 1
411.977 323.218 608.813 2696 2038531140 -1 1
329.612 567.821 649.17 2696 2038531144 -1 1
355.961 793.754 640.803 2696 2038531148 -1 1
351.762 776.863 633.421 2696 2038531152 -1 1
347.181 456.659 609.009 2696 2038531156 -1 1
333.639 526.433 620.393 2696 2038531160 -1 1
330.033 585.724 603.539 2696 2038531164 -1 1
330.068 597.307 619.108 2696 2038531168 -1 1
329.022 603.823 638.901 2696 2038531172 -1 1
413.381 319.188 659.911 2696 2038531176 -1 1
345.917 462.413 599.676 2696 2038531180 -1 1
355.945 793.801 640.912 2696 2038531184 -1 1
416.476 315.568 639.908 2696 2038531188 -1 1
337.03 501.53 622.378 2696 2038531192 -1 1
347.886 753.035 616.617 2696 2038531196 -1 1
350.966 765.255 607.954 2696 2038531200 -1 1
380.44 371.885 636.239 2696 2038531204 -1 1
335.733 510.538 635.992 2696 2038531208 -1 1
331.117 540.881 630.871 2696 2038531212 -1 1
338.664 729.343 676.28 2696 2038531216 -1 1
343.976 756.14 674.87 2696 2038531220 -1 1
342.283 474.276 589.533 2696 2038531224 -1 1
361.749 412.378 622.561 2696 2038531228 -1 1
334.163 528.197 603.401 2696 2038531232 -1 1
346.677 765.409 661.907 2696 2038531236 -1 1
333.856 526.414 620.548 2696 2038531240 -1 1
328.273 596.286 653.633 2696 2038531244 -1 1
329.114 587.934 640.209 2696 2038531248 -1 1
391.431 352.112 665.023 2696 2038531252 -1 1
339.867 719.693 635.857 2696 2038531256 -1 1
331.249 546.356 643.028 2696 2038531260 -1 1
425.85 304.586 638.317 2696 2038531264 -1 1
380.854 370.867 633.202 2696 2038531268 -1 1
360.712 416.432 631.162 2696 2038531272 -1 1
329.549 564.262 642.017 2696 2038531276 -1 1
535.509 199.492 744.673 2696 2038531280 -1 1
330.674 650.266 646.407 2696 2038531284 -1 1
396.614 344.554 638.22 2696 2038531288 -1 1
331.486 658.962 639.689 2696 2038531292 -1 1
349.588 448.6 618.665 2696 2038531296 -1 1
436.652 289.222 686.69 2696 2038531300 -1 1
338.411 736.01 692.056 2696 2038531304 -1 1
425.652 304.593 638.117 2696 2038531308 -1 1
376.755 379.48 638.729 2696 2038531312 -1 1
333.957 520.417 603.472 2696 2038531316 -1 1
328.162 595.415 652.312 2696 2038531320 -1 1
355.775 784.551 612.568 2696 2038531324 -1 1
414.728 318.614 635.961 2696 2038531328 -1 1
374.448 383.61 601.968 2696 2038531332 -1 1
395.589 345.283 652.747 2696 2038531336 -1 1
396.767 344.559 638.349 2696 2038531340 -1 1
330.653 553.413 637.021 2696 2038531344 -1 1
385.288 364.181 617.176 2696 2038531348 -1 1
346.989 780.584 705.932 2696 2038531352 -1 1
334.585 520.53 613.118 2696 2038531356 -1 1
445.901 280.426 667.152 2696 2038531360 -1 1
344.302 466.446 624.487 2696 2038531364 -1 1
381.067 370.779 606.97 2696 2038531368 -1 1
468.384 258.084 677.97 2696 2038531372 -1 1
347.265 456.18 617.375 2696 2038531376 -1 1
414.14 320.306 603.235 2696 2038531380 -1 1
369.816 393.562 656.213 2696 2038531384 -1 1
333.135 691.502 678.721 2696 2038531388 -1 1
362.176 411.118 606.966 2696 2038531392 -1 1
339.399 490.499 629.886 2696 2038531396 -1 1
329.183 583.334 645.302 2696 2038531400 -1 1
357.953 422.281 628.585 2696 2038531404 -1 1
338.577 700.388 608.843 2696 2038531408 -1 1
388.642 356.917 629.151 2696 2038531412 -1 1
394.237 347.958 606.202 2696 2038531416 -1 1
360.345 416.297 623.361 2696 2038531420 -1 1
550.906 185.853 773.38 2696 2038531424 -1 1
349.817 756.951 610.325 2696 2038531428 -1 1
373.394 385.677 621.737 2696 2038531432 -1 1
341.204 481.526 635.803 2696 2038531436 -1 1
571.632 173.012 775.516 2696 2038531440 -1 1
353.046 436.307 645.735 2696 2038531444 -1 1
353.172 795.151 671.805 2696 2038531448 -1 1
566.277 175.74 781.278 2696 2038531452 -1 1
371.66 389.534 655.191 2696 2038531456 -1 1
513.215 223.237 674.575 2696 2038531460 -1 1
416.507 317.348 601.154 2696 2038531464 -1 1
377.09 378.522 623.153 2696 2038531468 -1 1
333.387 522.589 626.782 2696 2038531472 -1 1
356.654 427.459 597.396 2696 2038531476 -1 1
343.216 743.977 648.891 2696 2038531480 -1 1
350.569 444.934 633.33 2696 2038531484 -1 1
330.356 567.773 606.39 2696 2038531488 -1 1
379.229 374.973 626.158 2696 2038531492 -1 1
393.226 349.28 667.123 2696 2038531496 -1 1
335.181 701.022 662.517 2696 2038531500 -1 1
414.712 316.394 676.759 2696 2038531504 -1 1
332.342 537.72 621.742 2696 2038531508 -1 1
329.827 594.545 603.367 2696 2038531512 -1 1
355.242 778.146 599.736 2696 2038531516 -1 1
347.449 456.453 619.436 2696 2038531520 -1 1
346.924 771.618 681.644 2696 2038531524 -1 1
340.437 716.736 625.451 2696 2038531528 -1 1
340.957 716.64 625.963 2696 2038531532 -1 1
347.557 746.583 605.234 2696 2038531536 -1 1
570.142 197.9 610.854 2696 2038531540 -1 1
383.477 366.383 641.189 2696 2038531544 -1 1
482.42 247.668 652.547 2696 2038531548 -1 1
333.083 669.225 625.696 2696 2038531552 -1 1
391.149 354.818 627.82 2696 2038531556 -1 1
335.253 513.041 620.574 2696 2038531560 -1 1
335.574 682.122 612.227 2696 2038531564 -1 1
330.425 555.934 631.796 2696 2038531568 -1 1
551.941 183.971 783.065 2696 2038531572 -1 1
331.024 554.421 640.058 2696 2038531576 -1 1
369.524 395.994 656.651 2696 2038531580 -1 1
350.081 758.146 606.831 2696 2038531584 -1 1
344.689 769.222 697.135 2696 2038531588 -1 1
370.397 392.353 635.032 2696 2038531592 -1 1
333.167 683.945 665.595 2696 2038531596 -1 1
329.332 606.679 631.37 2696 2038531600 -1 1
380.234 372.03 587.258 2696 2038531604 -1 1
513.52 218.196 710.875 2696 2038531608 -1 1
353.816 789.904 652.564 2696 2038531612 -1 1
348.425 761.758 633.83 2696 2038531616 -1 1
338.434 715.071 646.882 2696 2038531620 -1 1
330.214 580.158 617.701 2696 2038531624 -1 1
556.362 204.887 611.229 2696 2038531628 -1 1
398.068 339.968 670.57 2696 2038531632 -1 1
421.788 308.805 646.031 2696 2038531636 -1 1
350.181 447.721 633.338 2696 2038531640 -1 1
338.001 498.662 599.736 2696 2038531644 -1 1
398.869 341.922 604.813 2696 2038531648 -1 1
363.748 407.938 597.124 2696 2038531652 -1 1
345.803 463.598 637.372 2696 2038531656 -1 1
360.338 416.38 596.704 2696 2038531660 -1 1
329.493 597.755 629.904 2696 2038531664 -1 1
345.905 461.493 635.04 2696 2038531668 -1 1
352.718 439.185 636.38 2696 2038531672 -1 1
335.776 701.614 655.964 2696 2038531676 -1 1
342.781 732.677 630.701 2696 2038531680 -1 1
333.226 669.184 625.75 2696 2038531684 -1 1
348.384 452.022 632.489 2696 2038531688 -1 1
445.396 282.947 643.081 2696 2038531692 -1 1
347.952 784.051 701.792 2696 2038531696 -1 1
443.708 286.664 608.085 2696 2038531700 -1 1
505.994 225.505 702.882 2696 2038531704 -1 1
414.186 319.981 611.6 2696 2038531708 -1 1
426.555 302.689 656.547 2696 2038531712 -1 1
521.829 208.246 749.559 2696 2038531716 -1 1
345.71 741.414 612.087 2696 2038531720 -1 1
381.265 370.555 648.291 2696 2038531724 -1 1
369.002 393.867 633.016 2696 2038531728 -1 1
346.453 459.222 633.337 2696 2038531732 -1 1
333.099 686.232 658.871 2696 2038531736 -1 1
329.812 629.813 635.846 2696 2038531740 -1 1
363.098 409.614 598.329 2696 2038531744 -1 1
430.311 298.135 670.706 2696 2038531748 -1 1
386.658 361.073 651.302 2696 2038531752 -1 1
348.631 777.581 677.861 2696 2038531756 -1 1
345.819 765.855 676.022 2696 2038531760 -1 1
369.999 394.146 616.667 2696 2038531764 -1 1
340.647 719.899 626.561 2696 2038531768 -1 1
351.027 442.926 627.818 2696 2038531772 -1 1
427.355 304.609 604.703 2696 2038531776 -1 1
328.377 629.418 658.58 2696 2038531780 -1 1
336.139 690 625.289 2696 2038531784 -1 1
358.154 424.612 615.946 2696 2038531788 -1 1
429.38 300.052 642.485 2696 2038531792 -1 1
330.039 607.416 603.578 2696 2038531796 -1 1
328.544 622.713 653.889 2696 2038531800 -1 1
343.597 740.636 643.73 2696 2038531804 -1 1
400.984 337.899 592.066 2696 2038531808 -1 1
328.497 629.388 658.6 2696 2038531812 -1 1
383.034 368.465 592.699 2696 2038531816 -1 1
495.156 231.097 723.375 2696 2038531820 -1 1
540.771 199.251 722.912 2696 2038531824 -1 1
352.591 783.426 649.697 2696 2038531828 -1 1
331.807 662.987 654.763 2696 2038531832 -1 1
481.366 244.969 701.012 2696 2038531836 -1 1
354.871 434.277 611.703 2696 2038531840 -1 1
329.03 602.207 631.836 2696 2038531844 -1 1
333.684 688.352 649.952 2696 2038531848 -1 1
351.527 770.43 628.075 2696 2038531852 -1 1
346.292 743.845 610.239 2696 2038531856 -1 1
337.435 708.558 652.56 2696 2038531860 -1 1
335.696 513.927 605.064 2696 2038531864 -1 1
367.398 398.402 638.097 2696 2038531868 -1 1
367.695 398.661 642.391 2696 2038531872 -1 1
376.693 381.042 649.728 2696 2038531876 -1 1
329.566 599.611 615.655 2696 2038531880 -1 1
348.024 784.282 700.622 2696 2038531884 -1 1
390.517 353.035 668.259 2696 2038531888 -1 1
432.46 294.65 675.813 2696 2038531892 -1 1
340.503 483.736 615.568 2696 2038531896 -1 1
346.093 776.21 698.247 2696 2038531900 -1 1
341.852 747.999 678.761 2696 2038531904 -1 1
355.429 431.466 612.349 2696 2038531908 -1 1
358.399 422.437 614.891 2696 2038531912 -1 1
352.526 436.29 622.261 2696 2038531916 -1 1
417.143 315.995 615.078 2696 2038531920 -1 1
331.839 667.835 654.474 2696 2038531924 -1 1
350.995 444.351 602.887 2696 2038531928 -1 1
348.394 451.107 606.536 2696 2038531932 -1 1
345.209 741.221 613.258 2696 2038531936 -1 1
330.977 560.605 625.04 2696 2038531940 -1 1
331.597 638.498 618.351 2696 2038531944 -1 1
371.617 391.743 612.087 2696 2038531948 -1 1
346.369 747.136 619.217 2696 2038531952 -1 1
343.373 470.505 624.933 2696 2038531956 -1 1
340.447 746.834 698.303 2696 2038531960 -1 1
547.812 188.432 765.787 2696 2038531964 -1 1
335.429 711.567 685.882 2696 2038531968 -1 1
351.283 444.375 602.904 2696 2038531972 -1 1
342.208 743.751 659.942 2696 2038531976 -1 1
386.99 360.315 600.05 2696 2038531980 -1 1
556.908 183.703 761.452 2696 2038531984 -1 1
331.136 556.627 622.49 2696 2038531988 -1 1
391.514 353.043 642.355 2696 2038531992 -1 1
404.221 333.894 598.486 2696 2038531996 -1 1
345.849 461.795 611.132 2696 2038532000 -1 1
329.703 578.714 628.652 2696 2038532004 -1 1
533.573 197.515 771.456 2696 2038532008 -1 1
404.323 333.832 598.72 2696 2038532012 -1 1
388.252 357.548 625.252 2696 2038532016 -1 1
398.087 342.985 616.777 2696 2038532020 -1 1
410.407 323.25 667.598 2696 2038532024 -1 1
344.825 756.033 660.346 2696 2038532028 -1 1
335.949 696.844 646.666 2696 2038532032 -1 1
337.435 711.149 652.761 2696 2038532036 -1 1
453.129 270.061 711.615 2696 2038532040 -1 1
458.241 572.023 634.627 1936 -209703536 -1 1
545.289 662.083 652.444 1936 -209703532 -1 1
461.318 575.472 648.374 1936 -209703528 -1 1
377.159 453.28 647.793 1936 -209703524 -1 1
588.379 696.035 593.131 1936 -209703520 -1 1
588.474 695.893 593.287 1936 -209703516 -1 1
517.917 634.435 591.859 1936 -209703512 -1 1
535.652 651.479 601.738 1936 -209703508 -1 1
320.745 277.116 681.771 1936 -209703504 -1 1
359.354 417.357 615.943 1936 -209703500 -1 1
342.549 153.91 627.937 1936 -209703496 -1 1
416.655 516.36 608.524 1936 -209703492 -1 1
324.021 291.902 622.809 1936 -209703488 -1 1
555.012 669.948 633.96 1936 -209703484 -1 1
469.823 585.348 644.16 1936 -209703480 -1 1
530.998 648.329 645.385 1936 -209703476 -1 1
583.696 694.591 645.892 1936 -209703472 -1 1
456.826 569.966 643.759 1936 -209703468 -1 1
541.912 658.564 636.315 1936 -209703464 -1 1
583.614 694.549 645.83 1936 -209703460 -1 1
568.96 680.078 583.934 1936 -209703456 -1 1
583.127 693.423 624.996 1936 -209703452 -1 1
432.516 539.407 642.648 1936 -209703448 -1 1
464.207 578.885 636.649 1936 -209703444 -1 1
334.191 167.845 647.156 1936 -209703440 -1 1
324.374 293.458 609.024 1936 -209703436 -1 1
329.03 324.525 604.504 1936 -209703432 -1 1
327.427 315.821 618.446 1936 -209703428 -1 1
448.289 558.424 596.166 1936 -209703424 -1 1
483.222 600.538 652.534 1936 -209703420 -1 1
322.438 187.707 706.472 1936 -209703416 -1 1
551.654 667.686 656.479 1936 -209703412 -1 1
554.865 669.903 649.868 1936 -209703408 -1 1
331.084 138.285 734.179 1936 -209703404 -1 1
513.466 629.388 587.288 1936 -209703400 -1 1
564.545 679.27 651.41 1936 -209703396 -1 1
601.417 707.05 601.906 1936 -209703392 -1 1
331.064 138.307 734.151 1936 -209703388 -1 1
357.116 411.915 653.768 1936 -209703384 -1 1
326.437 203.335 635.433 1936 -209703380 -1 1
510.4 629.023 657.03 1936 -209703376 -1 1
393.714 482.228 633.206 1936 -209703372 -1 1
415.05 512.997 587.067 1936 -209703368 -1 1
594.937 701.681 598.23 1936 -209703364 -1 1
326.074 146.458 755.549 1936 -209703360 -1 1
321.553 265.577 636.249 1936 -209703356 -1 1
324.022 203.637 662.55 1936 -209703352 -1 1
394.036 483.151 647.152 1936 -209703348 -1 1
320.352 222.329 679.972 1936 -209703344 -1 1
379.574 457.482 626.46 1936 -209703340 -1 1
467.817 582.836 635.985 1936 -209703336 -1 1
370.8 441.918 651.862 1936 -209703332 -1 1
592.696 700.046 602.043 1936 -209703328 -1 1
382.58 463.736 635.756 1936 -209703324 -1 1
332.986 344.004 609.925 1936 -209703320 -1 1
417.9 519.265 623.229 1936 -209703316 -1 1
461.837 575.885 632.14 1936 -209703312 -1 1
437.131 544.534 602.114 1936 -209703308 -1 1
418.068 519.05 625.802 1936 -209703304 -1 1
333.338 130.031 738.029 1936 -209703300 -1 1
558.743 674.268 654.855 1936 -209703296 -1 1
533.94 650.575 614.794 1936 -209703292 -1 1
350.872 396.868 631.994 1936 -209703288 -1 1
358.077 414.377 636.725 1936 -209703284 -1 1
534.045 650.435 614.99 1936 -209703280 -1 1
319.486 270.952 690.265 1936 -209703276 -1 1
559.857 674.772 651.879 1936 -209703272 -1 1
326.296 308.856 612.644 1936 -209703268 -1 1
379.411 457.324 596.06 1936 -209703264 -1 1
415.121 514.811 618.332 1936 -209703260 -1 1
400.425 491.86 598.611 1936 -209703256 -1 1
549.727 664.769 629.199 1936 -209703252 -1 1
580.421 692.186 660.734 1936 -209703248 -1 1
431.347 536.728 634.189 1936 -209703244 -1 1
464.44 578.942 628.369 1936 -209703240 -1 1
577.218 685.828 583.927 1936 -209703236 -1 1
464.433 578.948 628.288 1936 -209703232 -1 1
568.361 682.163 655.167 1936 -209703228 -1 1
542.595 658.233 625.066 1936 -209703224 -1 1
558.143 672.841 644.761 1936 -209703220 -1 1
439.129 548.346 644.781 1936 -209703216 -1 1
323.656 223.39 631.067 1936 -209703212 -1 1
322.191 271.419 629.071 1936 -209703208 -1 1
392.21 479.947 631.692 1936 -209703204 -1 1
323.427 292.805 635.856 1936 -209703200 -1 1
567.043 678.665 593.954 1936 -209703196 -1 1
548.001 664.895 659.514 1936 -209703192 -1 1
424.051 526.572 629.191 1936 -209703188 -1 1
321.443 233.08 650.768 1936 -209703184 -1 1
457.129 570.306 648.025 1936 -209703180 -1 1
325.337 204.022 646.517 1936 -209703176 -1 1
583.886 695.895 666.179 1936 -209703172 -1 1
438.755 547.435 644.298 1936 -209703168 -1 1
570.371 681.024 586.417 1936 -209703164 -1 1
411.965 509.899 611.287 1936 -209703160 -1 1
338.106 361.693 615.738 1936 -209703156 -1 1
395.574 485.278 642.571 1936 -209703152 -1 1
328.768 177.491 668.018 1936 -209703148 -1 1
321.492 255.863 636.513 1936 -209703144 -1 1
425.289 528.737 626.341 1936 -209703140 -1 1
456.799 569.578 647.022 1936 -209703136 -1 1
492.344 610.042 635.914 1936 -209703132 -1 1
376.934 453.349 639.85 1936 -209703128 -1 1
589.459 697.328 602.62 1936 -209703124 -1 1
443.178 553.499 647.026 1936 -209703120 -1 1
450.727 561.724 597.629 1936 -209703116 -1 1
326.361 191.863 663.442 1936 -209703112 -1 1
320.468 261.85 664.962 1936 -209703108 -1 1
383.144 464.049 605.912 1936 -209703104 -1 1
328.92 325.476 625.461 1936 -209703100 -1 1
325.362 297.731 596.59 1936 -209703096 -1 1
325.051 298.543 609.007 1936 -209703092 -1 1
493.078 608.536 591.554 1936 -209703088 -1 1
356.39 411.33 648.975 1936 -209703084 -1 1
437.299 545.408 638.42 1936 -209703080 -1 1
328.781 177.384 669.496 1936 -209703076 -1 1
334.963 127.111 732.482 1936 -209703072 -1 1
520.344 636.17 589.051 1936 -209703068 -1 1
581.935 691.554 597.588 1936 -209703064 -1 1
350.686 396.033 656.519 1936 -209703060 -1 1
445.965 557.081 639.641 1936 -209703056 -1 1
591.984 698.124 585.888 1936 -209703052 -1 1
328.605 175.135 674.068 1936 -209703048 -1 1
601.838 706.933 597.321 1936 -209703044 -1 1
374.033 446.952 618.597 1936 -209703040 -1 1
503.622 621.19 620.52 1936 -209703036 -1 1
320.782 203.88 699.256 1936 -209703032 -1 1
369.868 440.288 648.506 1936 -209703028 -1 1
322.841 275.539 609.036 1936 -209703024 -1 1
321.374 250.718 640.139 1936 -209703020 -1 1
434.831 541.338 600.958 1936 -209703016 -1 1
439.343 547.763 638.789 1936 -209703012 -1 1
395.535 484.452 629.41 1936 -209703008 -1 1
503.67 621.111 620.514 1936 -209703004 -1 1
342.202 374.2 625.568 1936 -209703000 -1 1
498.513 616.039 628.642 1936 -209702996 -1 1
556.904 671.316 629.293 1936 -209702992 -1 1
456.316 567.344 624.053 1936 -209702988 -1 1
347.902 389.472 655.414 1936 -209702984 -1 1
578.738 691.824 679.323 1936 -209702980 -1 1
439.807 547.862 602.012 1936 -209702976 -1 1
321.955 285.252 668.35 1936 -209702972 -1 1
336.255 106.485 774.29 1936 -209702968 -1 1
539.677 655.386 607.191 1936 -209702964 -1 1
359.552 418.165 634.523 1936 -209702960 -1 1
549.061 665.517 642.817 1936 -209702956 -1 1
431.252 537.718 636.271 1936 -209702952 -1 1
390.013 476.618 634.972 1936 -209702948 -1 1
468.78 583.415 628.884 1936 -209702944 -1 1
379.944 458.776 634.918 1936 -209702940 -1 1
364.473 427.831 650.188 1936 -209702936 -1 1
321.848 241.773 638.669 1936 -209702932 -1 1
346.926 132.402 656.567 1936 -209702928 -1 1
462.167 575.838 614.11 1936 -209702924 -1 1
326.033 199.653 643.808 1936 -209702920 -1 1
