# .PCD v.7 - Point Cloud Data file format
VERSION .7
FIELDS x y z rgb
SIZE 4 4 4 4
TYPE F F F F
COUNT 1 1 1 1
WIDTH 96
HEIGHT 1
VIEWPOINT 0 0 0 1 0 0 0
POINTS 96
DATA ascii
-0.00535262 -0.0158999 -0.568696 5614554
-0.0220297 -0.0312211 -0.693403 4142721
-0.0159396 -0.0218346 -0.644282 5487598
-0.0217814 -0.00731425 -0.642197 7649777
-0.0190033 -0.0270322 -0.681717 5261971
-0.0264532 -0.000821681 -0.713357 8042739
-0.0169274 -0.0263076 -0.669767 9427711
-0.021108 -0.00667972 -0.575726 3782894
-0.021765 -0.0357732 -0.698151 7644903
-0.02738 0.00321172 -0.708904 5415649
-0.01945 -0.00229232 -0.642649 6067671
-0.017708 -0.0124644 -0.624068 1852057
-0.00370542 -0.017145 -0.573813 8414044
-0.0213378 -0.029091 -0.691279 3882633
-0.0270067 0.00322304 -0.711321 1928375
-0.0223214 -0.0108824 -0.645783 4805523
-0.0225652 0.000531369 -0.680956 5667009
-0.020947 -0.0260478 -0.707197 2627138
-0.00382539 0.0102627 -0.568518 8479575
-0.0134639 -0.0339162 -0.620068 1791378
-0.0269047 -0.000634282 -0.714641 4425933
-0.00924944 -0.0117196 -0.578101 9096702
-0.00413299 -0.004432 -0.562106 8242168
-0.0259255 -0.00228642 -0.714265 5608662
-0.026876 0.00570466 -0.717361 5470132
-0.0249167 0.014104 -0.715449 6524119
-0.0238975 0.0145489 -0.721238 4793633
-0.018731 -0.00589897 -0.603961 7239862
-0.00588637 -0.00737524 -0.578058 4300256
-0.0149587 -0.00975849 -0.592264 6870520
-0.0191554 -0.0191933 -0.680167 5398178
-0.0232666 -0.0320232 -0.70131 3956655
-0.0176966 -0.00312918 -0.599861 9210842
-0.0223393 -0.0117676 -0.646635 3815561
-0.0188794 0.0241411 -0.642581 7692171
-0.0245148 0.00131576 -0.704374 4285352
-0.0219005 -0.0102642 -0.642766 3751830
-0.00980326 -0.00370021 -0.578948 3776473
-0.0177309 -0.00356665 -0.62427 5399964
-0.0233727 0.0122838 -0.720434 4470891
-0.0227075 -0.012207 -0.634664 7978742
-0.025188 0.00341262 -0.699 3687573
-0.0227208 0.00296549 -0.685282 5662120
-0.0192519 -0.00672492 -0.59638 1916057
-0.0079146 -0.00699363 -0.576634 9031935
-0.0258923 0.0127086 -0.71855 4535653
-0.0206439 -0.0134196 -0.659725 3484008
-0.0218845 0.00699514 -0.679375 3763382
-0.0143959 -0.0137052 -0.647761 2062527
-0.0227763 0.00957318 -0.613717 7700938
-0.0206213 -0.0300421 -0.691207 6787536
-0.0187606 -0.0212182 -0.682074 8561635
-0.0168426 -0.0265294 -0.638489 8299732
-0.020293 -0.00887681 -0.637634 9294068
-0.0221626 -0.00816929 -0.654261 1383283
-0.0191807 -0.0249007 -0.683383 3817348
-0.0191629 -0.0221102 -0.681626 6328017
-0.0200437 -0.0156986 -0.636508 6790107
-0.00837744 -0.0242919 -0.579365 8741721
-0.017372 -0.0258229 -0.660265 2973870
-0.0232309 0.0030815 -0.687636 6196957
-0.0225672 -0.012856 -0.648061 4743860
-0.0163297 -0.0316762 -0.673853 9489395
-0.0191486 -0.0249134 -0.661416 5019081
-0.0240174 -0.00668218 -0.651539 2383786
-0.018202 -0.0251149 -0.662281 2714022
-0.0236055 -0.00675751 -0.651736 1912715
-0.0233575 0.00858167 -0.720617 3292285
-0.0213105 -0.00678098 -0.657436 4423361
-0.0136614 -0.0227584 -0.621329 5009585
-0.0215585 -0.0266356 -0.704609 5727142
-0.0178262 -0.0269731 -0.659894 2970785
-0.0127744 -0.0254239 -0.583793 11234915
-0.0278472 0.00753118 -0.718365 5060203
-0.0215246 -0.0274884 -0.693623 7576029
-0.0183895 -0.0109911 -0.631962 6265826
-0.00494613 0.0046683 -0.563621 10467580
-0.0243112 0.00249769 -0.69319 8499182
-0.0187839 -0.0181847 -0.667866 7383528
-0.0174257 -0.00992953 -0.612538 7112909
-0.0180174 -0.0220516 -0.673919 3815827
-0.0110529 -0.00227301 -0.586818 6998776
-0.0262375 0.00966774 -0.715263 4744621
-0.0215202 0.00567358 -0.732722 11953758
-0.0144261 -0.0339786 -0.611508 12220016
-0.0108707 -0.0101461 -0.590746 7194870
-0.0178488 0.000651306 -0.590013 9210077
-0.0153233 -0.0310834 -0.615297 3241388
-0.0165742 -0.00300593 -0.587966 6139115
-0.010489 -0.0252278 -0.590839 9785677
-0.00493532 0.0017413 -0.558894 9750269
-0.0182631 0.0297993 -0.642708 12679283
-0.00584294 -0.0200584 -0.568859 8479837
-0.0185213 -0.0358933 -0.657562 12482416
-0.0138791 -0.0336559 -0.596362 11760232
-0.0170844 -0.0374791 -0.680777 12220530
