# .PCD v.7 - Point Cloud Data file format
VERSION .7
FIELDS x y z rgb
SIZE 4 4 4 4
TYPE F F F F
COUNT 1 1 1 1
WIDTH 80
HEIGHT 1
VIEWPOINT 0 0 0 1 0 0 0
POINTS 80
DATA ascii
-0.012755 0.0161136 -0.719484 2.35099e-38
-0.0129895 0.0146738 -0.718448 2.34987e-38
-0.0108906 0.0138326 -0.715696 1.71361e-38
-0.011148 0.013131 -0.715936 1.95365e-38
0.0289946 0.00581302 -0.709524 2.35099e-38
-0.00983541 0.0148888 -0.720363 2.30569e-39
-0.0094353 0.0130945 -0.722154 7.47082e-39
-0.00931254 0.0138428 -0.721921 7.74633e-39
0.0308625 0.0085897 -0.709651 2.35066e-38
0.0260875 0.0129723 -0.712118 1.93649e-39
-0.013068 0.0125034 -0.715644 2.35055e-38
-0.00495604 0.00190165 -0.617769 1.09536e-38
0.00840083 0.000105973 -0.616845 2.1281e-38
0.0160766 -0.00482717 -0.59802 1.07735e-38
-0.00122933 0.00639943 -0.607163 2.30424e-38
0.00116145 0.00351392 -0.616689 1.52854e-38
0.00392583 0.0117041 -0.540466 2.27567e-38
-0.00248464 0.00521942 -0.613867 1.43685e-38
0.0154553 -0.00510839 -0.59248 1.77685e-38
-0.00164111 0.00392544 -0.624701 1.82338e-38
0.00481558 0.00105133 -0.621286 1.27018e-38
0.00719418 0.00790147 -0.537108 8.11578e-39
-0.0196632 0.0144913 -0.713525 1.97104e-38
-0.0160994 0.0106521 -0.677143 1.77657e-38
-0.0047871 0.0045928 -0.626396 1.34372e-38
-0.00849045 0.00370033 -0.620003 1.57381e-38
0.0183243 -0.00579979 -0.597018 1.77789e-38
0.0180249 -0.00563809 -0.59973 1.54736e-38
-0.00256018 0.00661642 -0.602676 1.9813e-38
-0.00671962 0.00701455 -0.653192 1.23304e-38
-0.0213537 0.00839687 -0.693946 1.95188e-38
0.00545937 0.00250511 -0.591322 1.65768e-38
-0.00813328 0.00487887 -0.640883 9.5653e-39
-0.00526532 0.00662509 -0.609407 1.47301e-38
-0.00859149 0.0149516 -0.723621 8.02581e-39
-0.0178433 0.0106875 -0.688074 1.49116e-38
0.00249471 0.003847 -0.590927 1.67569e-38
-0.000419501 0.00348633 -0.624772 1.34368e-38
-0.00484414 0.00422689 -0.623995 1.14924e-38
0.0163381 -0.00102532 -0.673945 1.62913e-38
-0.00477725 0.00510602 -0.620536 2.03482e-38
-0.0120814 0.0116311 -0.713042 1.92458e-38
-0.00593651 0.00594024 -0.64426 1.67562e-38
0.0211211 8.92237e-05 -0.68271 1.14085e-38
-0.00621439 0.00653514 -0.657823 1.31638e-38
0.00433561 0.00365185 -0.60533 2.28623e-38
-0.00343178 0.00735242 -0.599001 1.971e-38
0.000924533 0.00357079 -0.629254 2.1639e-38
-0.00155234 0.00495991 -0.58756 1.73958e-38
-0.00299789 0.00427889 -0.622318 2.06255e-38
0.00456495 0.0018482 -0.613633 1.70418e-38
0.0230446 -0.00487415 -0.672547 1.58328e-38
0.0192198 0.000561916 -0.684161 1.48194e-38
-0.0172645 0.0109143 -0.681169 1.85039e-38
-0.0115884 0.0106915 -0.667335 1.2325e-38
0.108351 -0.0156503 -0.596466 2.1205e-39
0.0107586 -0.0017159 -0.602607 2.35027e-38
-0.00729813 0.00728371 -0.59808 2.30262e-38
-0.00298633 0.00447925 -0.63692 1.52753e-38
-0.00250486 0.00480747 -0.629971 1.45377e-38
0.00169264 0.00491695 -0.599768 2.35099e-38
0.0488745 0.000959082 -0.686965 9.96045e-39
0.104557 -0.0157751 -0.584712 7.65661e-39
0.0403419 0.00201278 -0.709788 1.00516e-38
-0.00024926 0.00407686 -0.620321 1.70292e-38
0.0193326 -0.00389007 -0.691648 1.39856e-38
-0.016961 0.00978607 -0.697541 1.13159e-38
-0.0030836 0.00516307 -0.657925 8.55513e-39
0.10338 -0.00963504 -0.596339 9.86718e-39
0.0220977 0.0102316 -0.550638 8.39345e-39
-0.00975642 0.0153578 -0.725453 8.57754e-39
0.059598 -0.0107041 -0.584675 7.0116e-39
-0.0344407 0.00767142 -0.720633 1.03289e-38
0.0596253 -0.00897387 -0.58131 7.56369e-39
-0.00736448 0.00722924 -0.602291 1.97039e-38
0.102788 -0.011944 -0.591666 7.56369e-39
0.027066 -0.0095596 -0.586854 8.39237e-39
0.0594268 -0.00594278 -0.576355 7.01159e-39
0.102033 -0.0150029 -0.593374 7.56405e-39
0.0316022 -0.00895026 -0.585892 8.11793e-39
