# .PCD v.7 - Point Cloud Data file format
VERSION .7
FIELDS x y z rgb
SIZE 4 4 4 4
TYPE F F F F
COUNT 1 1 1 1
WIDTH 76
HEIGHT 1
VIEWPOINT 0 0 0 1 0 0 0
POINTS 76
DATA ascii
-0.0134494 0.0143349 -0.717566 2.34987e-38
0.0305114 0.00510218 -0.708724 2.19371e-38
-0.00916865 0.0142213 -0.721816 7.93253e-39
0.00461035 0.0135755 -0.540111 2.35018e-38
-0.00449026 0.00511228 -0.615458 1.12274e-38
-0.0108789 0.0125027 -0.719059 2.26729e-38
0.00139667 0.00258152 -0.617595 2.03558e-38
-0.00891333 0.0141056 -0.724256 8.20984e-39
-0.0242284 0.00925077 -0.712841 2.11829e-38
-0.00491867 0.00423642 -0.62674 1.05759e-38
-0.0238893 0.014835 -0.713804 2.05386e-38
-0.00491207 0.0082441 -0.721112 6.64214e-39
0.00280858 0.00405212 -0.596021 2.30385e-38
0.102141 -0.0320165 -0.599185 9.50091e-39
0.101397 -0.0336482 -0.600571 9.0403e-39
0.0104767 0.0187448 -0.542445 2.27528e-38
0.0041923 0.00361991 -0.608296 2.24893e-38
0.00456664 0.00185301 -0.613532 1.68574e-38
0.0219388 -0.00194472 -0.676152 2.10865e-38
0.0198834 0.000739689 -0.691483 1.73998e-38
-0.00653983 0.00612495 -0.643467 1.41765e-38
0.00139451 0.00317684 -0.628332 1.95177e-38
-0.00548921 0.00647247 -0.647246 1.15047e-38
0.0206086 0.000797699 -0.682511 1.49119e-38
0.00124306 0.0032674 -0.631453 1.23215e-38
0.00973049 -0.000504356 -0.646791 1.35312e-38
-0.0048479 0.0042188 -0.623888 1.22257e-38
-0.00674101 0.00477079 -0.619277 1.6754e-38
0.00987857 0.018152 -0.540075 2.31183e-38
0.00530709 0.00175412 -0.609498 2.06428e-38
0.0144512 -0.00433148 -0.595241 1.94309e-38
0.0204654 -0.00152436 -0.675897 1.59206e-38
0.00484489 0.0026989 -0.635277 1.36144e-38
0.104033 -0.0341351 -0.596484 1.93755e-39
-0.00931127 0.0137422 -0.727708 9.13143e-39
0.00781742 0.00102974 -0.596102 2.30399e-38
-0.0160684 0.0114792 -0.683909 1.40764e-38
0.000884113 0.0026477 -0.621435 1.7954e-38
-0.00626319 0.00489459 -0.636564 1.59218e-38
-0.0188096 0.00694492 -0.687417 1.4998e-38
-0.000402251 0.00345268 -0.629138 1.70249e-38
0.022749 0.00104768 -0.703762 1.95192e-38
-0.0160972 0.0100327 -0.6947 1.49112e-38
0.0228119 -0.00313981 -0.662646 1.26946e-38
0.00940979 -0.00103371 -0.640334 1.42684e-38
0.0157882 -0.00463038 -0.650137 1.52753e-38
-0.0158306 0.00969643 -0.696468 7.63208e-39
-0.0155232 0.00919418 -0.695295 1.10372e-38
0.101775 -0.0342461 -0.586418 7.56477e-39
-0.00599929 0.00745411 -0.603303 1.72175e-38
0.101162 -0.0356406 -0.587246 7.65661e-39
0.015794 -0.00428442 -0.653476 1.8688e-38
-0.00249819 -0.000539247 -0.618413 1.45514e-38
0.00486958 0.00128375 -0.623874 1.50052e-38
-0.00632839 0.00728023 -0.649284 1.52829e-38
0.0132528 -0.0156713 -0.584571 8.94446e-39
3.79055e-06 0.0237811 -0.730354 8.11801e-39
-0.00984791 0.00531407 -0.640586 1.50055e-38
0.00313634 0.00241813 -0.624429 1.80448e-38
0.00727998 0.000728143 -0.634844 1.21443e-38
-0.0314046 0.0120705 -0.708616 1.02349e-38
0.0977638 -0.0376084 -0.602002 8.85447e-39
0.0211754 5.43099e-05 -0.699985 1.50023e-38
0.00147079 0.00311666 -0.657252 1.09493e-38
0.097645 -0.035355 -0.596229 7.19528e-39
-0.028282 0.0142283 -0.717261 9.95974e-39
0.000588525 0.00430509 -0.611172 2.35052e-38
-0.0119997 0.0107703 -0.68243 1.31559e-38
-0.0196969 0.0177607 -0.727339 9.77609e-39
0.0217604 -0.00450708 -0.663917 1.41665e-38
0.102971 -0.0329781 -0.567237 7.65624e-39
0.0914156 -0.0313751 -0.592301 7.37894e-39
0.00470171 0.002357 -0.638265 1.3892e-38
0.0712354 -0.0219145 -0.604095 9.13178e-39
0.0964774 -0.0312177 -0.585383 7.93283e-39
0.0871102 -0.0307284 -0.58975 7.65516e-39
