# .PCD v.7 - Point Cloud Data file format
VERSION .7
FIELDS x y z rgb
SIZE 4 4 4 4
TYPE F F F F
COUNT 1 1 1 1
WIDTH 117
HEIGHT 1
VIEWPOINT 0 0 0 1 0 0 0
POINTS 117
DATA ascii
0.00770825 0.0185972 -0.543523 1.73054e-38
-0.0148482 0.0286602 -0.633104 2.30399e-38
-0.0100624 -0.0300175 -0.597884 1.58377e-38
-0.0102937 -0.0151726 -0.596168 1.97081e-38
0.00977321 0.0228236 -0.549016 1.97986e-38
0.0104554 0.0223828 -0.546696 2.15521e-38
-0.0046199 -0.0169612 -0.573743 8.11758e-39
0.0110266 0.02715 -0.553836 1.92476e-38
-0.0176348 0.0278297 -0.636913 2.11002e-38
-0.00393615 -0.00987692 -0.585912 2.21971e-38
-0.00880473 -0.0276159 -0.597822 1.47264e-38
-0.0270191 0.00322105 -0.711353 1.76748e-38
-0.0151772 -0.0342979 -0.619524 1.05751e-38
-0.0101554 -0.0255412 -0.593092 1.81433e-38
-0.0224782 0.000518182 -0.680918 1.49965e-38
-0.00233174 0.0108059 -0.551006 2.1281e-38
-0.0169208 0.0281308 -0.636542 2.35081e-38
-0.0214027 -0.0103592 -0.642941 1.44398e-38
-0.0257864 0.012691 -0.718678 1.01235e-38
-0.0185108 -0.0360411 -0.6407 1.88816e-38
-0.0250488 0.0147475 -0.720538 4.05304e-39
-0.0185967 -0.00699907 -0.632804 1.96146e-38
-0.0287685 -0.0455689 -0.706653 1.70334e-38
-0.0175477 -0.00173462 -0.594907 2.27457e-38
-0.0194353 -0.0106387 -0.640232 2.34929e-38
-0.0226281 0.00484998 -0.683643 1.72189e-38
-0.00991063 -0.003681 -0.578773 1.97985e-38
-0.0300861 0.0153422 -0.71929 7.01166e-39
-0.0212267 -0.00167722 -0.690224 2.09953e-38
-0.0213583 -0.014407 -0.654171 1.62905e-38
-0.0260808 -0.0423961 -0.709518 1.97032e-38
-0.0210677 -0.012276 -0.646951 1.34303e-38
-0.0277043 -0.039012 -0.714613 1.20549e-38
-0.00061179 0.013917 -0.547186 2.25695e-38
-0.024709 -0.0331425 -0.712047 1.50956e-38
-0.0220189 0.00701709 -0.67931 1.72139e-38
-0.0174251 -0.00741417 -0.601122 1.4166e-38
-0.0172146 -0.00663032 -0.596089 2.01663e-38
-0.0130723 -0.0103556 -0.587604 2.29429e-38
-0.0257693 0.00698515 -0.709396 1.6297e-38
-0.0268558 -0.0499127 -0.726086 6.09041e-39
-0.0253533 -0.038426 -0.705686 1.85946e-38
-0.0225384 0.00546501 -0.681842 1.58331e-38
-0.00150572 0.000717611 -0.552265 2.30283e-38
-0.0127557 -0.0272238 -0.641406 1.93394e-38
-0.00733628 -0.0280556 -0.586418 8.76043e-39
-0.0234934 0.00309178 -0.68358 1.45366e-38
-0.0263102 0.0128861 -0.716671 9.74792e-39
-0.0194607 -0.00903808 -0.638048 2.35022e-38
-0.0270915 0.00981851 -0.714617 1.67536e-38
-0.0235316 0.00518843 -0.682784 1.31548e-38
-0.0216327 -0.00827311 -0.654653 1.90592e-38
-0.0069892 -0.0281919 -0.586551 8.76043e-39
-0.00196923 -0.00581043 -0.563345 2.05333e-38
0.00280378 0.0155459 -0.562753 1.01239e-38
-0.0113043 -0.0275726 -0.595781 2.31259e-38
-0.0192976 -0.0189153 -0.668471 9.74536e-39
-0.027988 0.00937578 -0.717288 1.32531e-38
-0.0247865 -0.0364617 -0.707571 1.58277e-38
-0.00801308 -0.0243687 -0.579753 8.48564e-39
-0.0267674 0.00734305 -0.719237 1.0399e-38
-0.00283666 0.00573366 -0.549596 2.34954e-38
-0.0248054 0.00748364 -0.700562 1.42662e-38
0.0123094 0.006493 -0.541691 2.03593e-38
-0.00761378 -0.0266002 -0.605758 9.96046e-39
-0.00656832 -0.014106 -0.562825 8.02467e-39
-0.00527459 0.00421199 -0.576506 1.77718e-38
-0.0115579 0.00192527 -0.583778 2.26595e-38
-0.0135721 -0.0124289 -0.599691 1.53674e-38
-0.02949 -0.0475753 -0.705188 2.01645e-38
-0.0223598 0.00657202 -0.6801 1.7032e-38
-0.0144501 -0.0283221 -0.611706 1.36233e-38
-0.00874582 -0.0237617 -0.578647 8.11722e-39
-0.00633253 -0.0193389 -0.568851 8.30161e-39
-0.000634653 0.00818838 -0.548267 2.2661e-38
-0.0122769 -0.00205621 -0.585943 1.90574e-38
-0.00994043 -0.00437192 -0.577247 2.23829e-38
-0.00751415 6.97582e-05 -0.575188 1.58255e-38
-0.0181143 -0.0397733 -0.640646 1.02367e-38
0.00585818 0.0121707 -0.538233 2.28507e-38
-0.0277604 -0.0430214 -0.709246 2.0073e-38
-0.024343 0.00452209 -0.693787 1.65725e-38
-0.0169008 -0.0377965 -0.635458 1.00527e-38
-0.0237488 0.00822118 -0.700372 1.62055e-38
-0.0027402 -0.0155729 -0.56522 8.20834e-39
-0.0279568 0.0069713 -0.717604 1.50059e-38
-0.00351227 0.00782365 -0.569759 1.38063e-38
-0.0153975 0.017913 -0.623394 1.01438e-38
-0.0161906 -0.0379809 -0.627399 1.01445e-38
-0.0252792 -0.0370733 -0.712403 2.19184e-38
-0.00643748 -0.019942 -0.569012 8.30125e-39
-0.00968298 -0.0253931 -0.591429 6.8251e-39
-0.00971109 -0.0286437 -0.603682 1.0237e-38
-0.0109268 0.00289736 -0.586375 2.01684e-38
-0.01306 0.0310563 -0.634591 1.01452e-38
-0.0196355 -0.0376155 -0.682304 1.02352e-38
-0.0187665 -0.0358423 -0.658012 9.68389e-39
0.000931663 0.00981631 -0.564625 1.3439e-38
0.00641033 0.0160098 -0.568824 8.75898e-39
-0.0225122 0.00442025 -0.666506 1.85997e-38
-0.0138029 -0.0341687 -0.625769 1.02367e-38
-0.0057186 -0.0143514 -0.575385 1.7301e-38
-0.00199438 0.00843772 -0.563188 1.36197e-38
-0.0206677 -0.0348383 -0.677371 6.82799e-39
-0.01896 -0.0202198 -0.676901 1.20442e-38
-0.0153901 -0.0361077 -0.650287 1.0236e-38
-0.0212511 -0.00206543 -0.68435 1.59243e-38
-0.0120937 0.00415584 -0.594971 1.57356e-38
-0.0171725 -0.0389403 -0.65268 1.0697e-38
-0.0116348 -0.0310781 -0.600857 9.77607e-39
-0.027276 -0.0244393 -0.711267 8.75973e-39
-0.0106992 0.03134 -0.624233 1.06055e-38
-0.0175749 -0.0332547 -0.665134 1.05126e-38
-0.0316866 -0.00851584 -0.729859 8.76158e-39
-0.0216452 0.0286523 -0.64745 1.03289e-38
-0.0103907 -0.00301673 -0.582261 2.31208e-38
-0.0291376 -0.00284859 -0.72171 8.02365e-39
