# .PCD v.7 - Point Cloud Data file format
VERSION .7
FIELDS x y z rgb
SIZE 4 4 4 4
TYPE F F F F
COUNT 1 1 1 1
WIDTH 83
HEIGHT 1
VIEWPOINT 0 0 0 1 0 0 0
POINTS 83
DATA ascii
-0.00799574 0.00951218 -0.718785 2.35099e-38
0.022158 0.00256357 -0.711321 1.86058e-38
0.034075 0.00151554 -0.711103 2.35099e-38
0.0069705 0.0187692 -0.544318 4.87664e-39
-0.0151382 0.00963871 -0.717071 2.34998e-38
0.0320125 0.00428591 -0.716467 4.42652e-39
0.00805876 -0.00109071 -0.617486 2.26646e-38
-0.0132553 0.0121118 -0.715823 2.19353e-38
0.00693525 -0.000263482 -0.617633 2.19289e-38
0.00145336 0.00267731 -0.617363 2.11859e-38
-0.00132926 0.00617343 -0.607918 2.35041e-38
0.0110657 -0.00185473 -0.609955 2.35002e-38
-0.0025241 0.00684333 -0.604185 2.29531e-38
0.00182579 0.00241932 -0.621273 1.58335e-38
0.00249101 0.0035039 -0.596272 2.31328e-38
0.00797455 -5.21957e-05 -0.613075 1.88879e-38
0.093928 -0.0508588 -0.601269 8.85591e-39
-0.00117253 0.00418168 -0.618773 1.92491e-38
0.00445377 0.00165265 -0.613659 1.68581e-38
0.00197459 0.0165847 -0.543638 2.23866e-38
0.0105827 0.0189368 -0.54247 2.27485e-38
0.00580899 0.000685642 -0.617411 1.97101e-38
0.0206952 -0.00111373 -0.675518 1.65657e-38
-0.0157378 0.0117846 -0.681075 1.62934e-38
-0.00955957 0.00646484 -0.643429 1.47279e-38
-0.0207142 0.00945747 -0.615316 2.11833e-38
-0.00973737 0.00759044 -0.679302 1.19635e-38
0.0198559 -0.00263966 -0.667634 1.47196e-38
0.0219347 -0.00342446 -0.673307 1.72147e-38
0.01221 -0.00261621 -0.649788 1.27003e-38
0.00734349 -0.00124646 -0.632062 1.49112e-38
0.0104001 -0.00275 -0.655087 1.23308e-38
0.0231546 -0.00342549 -0.676555 1.55508e-38
0.00958384 -0.000762657 -0.646804 1.32535e-38
0.0022299 0.00358852 -0.59123 1.68441e-38
-0.0207902 0.0151765 -0.622405 1.93311e-38
0.00461236 0.00230533 -0.635583 1.45406e-38
0.00801615 -0.00088368 -0.589434 1.53776e-38
0.0154104 -0.0053053 -0.650542 1.61051e-38
0.00818996 0.000636354 -0.597441 2.35066e-38
0.0239194 -9.35246e-06 -0.7044 2.1273e-38
0.0964083 -0.0518601 -0.596859 2.02938e-39
-0.00400485 0.0224714 -0.638237 1.22408e-38
-0.0139065 0.00689072 -0.683614 1.23254e-38
0.0187977 -0.00506355 -0.652207 1.64746e-38
0.00803334 0.00685585 -0.536974 7.84028e-39
-0.0150538 0.0036222 -0.587405 1.59315e-38
-0.00825036 0.00749438 -0.65026 1.40829e-38
-0.00536134 0.00643325 -0.619113 1.53661e-38
-0.0183653 0.0101471 -0.697609 1.35301e-38
-8.09917e-05 0.00342111 -0.623632 1.58306e-38
0.00407921 0.00368928 -0.58722 1.84092e-38
-0.00501457 0.00552541 -0.659643 1.37199e-38
-0.017861 0.0107135 -0.69212 1.55548e-38
0.0157338 -0.00333086 -0.657337 1.41657e-38
0.0177848 -0.00539982 -0.653545 1.90589e-38
-0.0129605 0.0116824 -0.685166 1.84146e-38
-0.00670584 0.0106154 -0.725436 8.85341e-39
0.0951463 -0.0496203 -0.585238 8.11686e-39
0.00266741 0.00160611 -0.624945 1.54629e-38
0.0210427 0.00146703 -0.699408 1.83192e-38
0.0129061 -0.00447728 -0.649641 1.92455e-38
-0.0287165 0.0135315 -0.716443 1.07895e-38
0.00998996 -0.000265866 -0.604517 2.22109e-38
-0.00412894 0.00928297 -0.724265 8.57718e-39
-0.0269409 0.0103958 -0.71184 9.95902e-39
-0.00284913 0.00415622 -0.633661 1.65664e-38
-0.0106909 0.00983369 -0.67582 1.78611e-38
-0.026266 0.00218064 -0.592421 8.11649e-39
-0.018794 0.0107214 -0.586611 8.39237e-39
-0.0234407 0.00541725 -0.590623 7.84027e-39
-0.00944357 0.00854021 -0.730765 8.48499e-39
-0.000743812 0.00465072 -0.649604 1.2047e-38
0.0386888 0.000561108 -0.722753 1.01445e-38
0.0125751 -0.00487376 -0.650192 1.6297e-38
0.000985782 0.00474735 -0.63736 1.76735e-38
-0.00368631 0.00892273 -0.725144 8.30061e-39
0.0518847 -0.0310575 -0.585106 7.01159e-39
0.0488475 -0.0348867 -0.585606 7.28747e-39
0.0517984 0.0173043 -0.709207 1.06037e-38
0.0917056 -0.049009 -0.594536 7.47186e-39
0.00671236 0.00176487 -0.610299 2.24846e-38
0.0982384 -0.0525484 -0.587208 1.66024e-39
