# .PCD v.7 - Point Cloud Data file format
VERSION .7
FIELDS x y z rgb
SIZE 4 4 4 4
TYPE F F F F
COUNT 1 1 1 1
WIDTH 63
HEIGHT 1
VIEWPOINT 0 0 0 1 0 0 0
POINTS 63
DATA ascii
-0.00769421 0.00986941 -0.718549 2.35099e-38
-0.020487 0.0177075 -0.717834 2.35099e-38
-0.0203828 0.0187477 -0.718653 2.35099e-38
-0.0159177 0.0179822 -0.72017 5.3521e-39
-0.0128543 0.0163189 -0.719401 2.35084e-38
-0.0131523 0.0147425 -0.717343 2.35099e-38
-0.00959522 0.0123028 -0.722283 7.65701e-39
-0.0128412 0.0125876 -0.715397 2.35041e-38
0.0264188 0.00285979 -0.726426 6.18297e-39
-0.012023 0.00593206 -0.606791 9.29983e-39
-0.00403606 0.00418833 -0.615372 1.14132e-38
-0.0106599 0.0118662 -0.719215 2.35088e-38
-0.0150674 0.0125351 -0.716412 2.35048e-38
0.0166112 -0.0042414 -0.59714 9.75149e-39
0.0169447 -0.00363911 -0.605384 5.79861e-39
0.0250473 0.00316554 -0.732217 7.47336e-39
0.0229645 -0.00360089 -0.604369 2.12809e-38
-0.00128397 0.00622871 -0.607971 2.30442e-38
0.0171464 -0.007668 -0.600756 1.73171e-38
-0.011001 0.012868 -0.718811 2.16595e-38
0.0213646 -0.00185125 -0.675228 1.88709e-38
0.00296386 0.00406672 -0.5957 2.35027e-38
0.00532307 0.00226628 -0.590995 1.73115e-38
0.00496041 0.0019596 -0.591246 1.73115e-38
0.0209193 -0.000838626 -0.675312 1.99765e-38
-0.0173263 0.00851143 -0.711612 2.12745e-38
0.0117254 -0.00320537 -0.650407 1.27882e-38
0.00117647 -0.00122933 -0.594214 1.75827e-38
-0.0245676 0.014804 -0.715081 2.24762e-38
-0.00963623 0.00770996 -0.679165 1.12252e-38
0.0106773 0.0190526 -0.542218 2.24723e-38
-0.0237336 0.018737 -0.715665 9.77608e-39
0.00301106 0.00217567 -0.629962 2.01627e-38
0.0154878 -0.00520528 -0.650222 1.81352e-38
-0.0114167 0.00219095 -0.690342 8.09773e-39
0.0266026 -0.00341659 -0.709216 1.8514e-38
0.0138911 -0.00343267 -0.603384 1.95282e-38
0.010428 -0.00271723 -0.655011 1.31613e-38
0.00844544 -0.000363114 -0.588997 1.69453e-38
-0.0185017 0.00922702 -0.71241 2.04411e-38
0.00640114 0.00116505 -0.59683 2.35074e-38
-0.0194875 0.00851966 -0.711534 1.38019e-38
-0.0188918 0.00900447 -0.711079 1.69391e-38
-0.0176583 0.00999409 -0.709763 1.82313e-38
-0.00641683 0.010986 -0.724338 8.85376e-39
-0.00791059 0.00823176 -0.658504 1.38031e-38
-0.00646276 0.0108951 -0.725155 8.39244e-39
-0.0105338 0.0172242 -0.727312 9.869e-39
-0.00856025 0.00713025 -0.65072 1.16833e-38
-0.0024495 0.00336487 -0.629902 1.34275e-38
0.081618 -0.0659661 -0.70053 1.07906e-38
0.0102841 8.7975e-05 -0.604308 2.22105e-38
-0.00474969 0.00855766 -0.724672 9.03851e-39
-0.0165536 0.00462707 -0.615933 9.96046e-39
-0.0144704 0.0197397 -0.724241 9.77501e-39
-0.01207 0.00972019 -0.684706 1.19599e-38
-0.0294178 0.0245475 -0.718932 1.06076e-38
0.00739135 0.00206611 -0.604564 2.13829e-38
0.0840489 -0.0654942 -0.533033 7.28855e-39
0.0870083 -0.0682872 -0.533207 1.75208e-39
-0.0324954 0.0263895 -0.704815 1.04222e-38
-0.0353157 0.031041 -0.720563 1.05137e-38
-0.0188046 0.0249124 -0.720164 1.03278e-38
