# .PCD v.7 - Point Cloud Data file format
VERSION .7
FIELDS x y z rgb
SIZE 4 4 4 4
TYPE F F F F
COUNT 1 1 1 1
WIDTH 72
HEIGHT 1
VIEWPOINT 0 0 0 1 0 0 0
POINTS 72
DATA ascii
-0.0152151 0.0185441 -0.719462 4.70637e-39
-0.00702588 0.0104192 -0.717809 2.35099e-38
-0.00630556 0.0106192 -0.718919 2.35099e-38
-0.0192894 0.0196025 -0.717904 2.35099e-38
-0.0129634 0.016232 -0.719479 2.35099e-38
-0.0203132 0.0190559 -0.719025 2.35099e-38
-0.00842622 0.0147306 -0.721233 7.93218e-39
-0.00845874 0.014713 -0.721273 7.93218e-39
0.013611 0.0171701 -0.542774 2.14582e-38
-0.0111231 0.0114913 -0.719741 2.35099e-38
0.00115263 0.00410195 -0.612953 1.73202e-38
0.0130831 -0.00627202 -0.608 1.18814e-38
-0.0118276 0.0134095 -0.714466 2.35066e-38
0.0129569 -0.00634271 -0.608226 1.71358e-38
0.0117022 0.0143047 -0.561013 7.54528e-39
0.0098197 0.0253496 -0.551356 2.229e-38
-0.00226424 0.00602611 -0.608631 2.22995e-38
8.04651e-05 0.00736064 -0.606964 2.35038e-38
0.0133049 -0.00150902 -0.599377 2.1931e-38
0.0194355 -0.00206507 -0.66973 1.79511e-38
0.00533163 0.00227368 -0.59085 1.66662e-38
0.0151367 0.0210285 -0.547764 2.13691e-38
0.0713938 -0.080086 -0.600041 9.31509e-39
-0.00206291 0.00642003 -0.645867 1.55515e-38
0.0176171 0.0128163 -0.547647 2.09057e-38
-0.0124391 0.0163449 -0.724111 8.94704e-39
-0.00444628 0.00463227 -0.662236 9.29555e-39
0.0213879 -0.0018283 -0.675089 1.94244e-38
0.0208158 -0.000926977 -0.675428 1.82259e-38
0.0236309 -0.000256633 -0.7048 1.66604e-38
0.00315227 0.0042236 -0.595467 2.27647e-38
-0.0230109 0.0211457 -0.718669 1.07891e-38
-0.00981409 0.00756452 -0.679237 1.45439e-38
0.00193223 0.00352389 -0.590919 1.72129e-38
-0.00878789 0.0140846 -0.727604 9.68389e-39
0.0104931 0.0188955 -0.542243 2.27478e-38
0.00772607 0.00140353 -0.596098 2.35066e-38
-0.0154083 0.0141689 -0.632582 9.9601e-39
0.0220582 -0.00254379 -0.67467 2.05319e-38
0.00488317 0.0220372 -0.543595 8.02431e-39
-0.00664879 0.00738308 -0.658204 9.00997e-39
0.0249884 -0.00310788 -0.710095 1.64867e-38
0.0104367 -0.00270831 -0.654947 1.37112e-38
0.00771726 -0.00112043 -0.587632 1.60172e-38
0.0731189 -0.0814718 -0.596685 2.21234e-39
-0.00859901 0.00828616 -0.650621 1.67526e-38
-0.00891052 0.0053732 -0.686978 8.55871e-39
0.0146819 0.012796 -0.557717 1.23459e-38
0.0215607 -0.00409031 -0.665168 1.49969e-38
-0.0114766 0.0108632 -0.680001 1.35232e-38
-0.00953833 0.00727221 -0.59791 1.85054e-38
0.0240969 -0.00156193 -0.689737 1.6293e-38
-0.0135335 0.0196774 -0.723145 1.042e-38
-0.0148962 0.021067 -0.726622 1.06051e-38
0.0240372 -0.00215347 -0.695975 1.62931e-38
0.0239764 -0.00622212 -0.675725 1.4541e-38
0.0104665 0.000249131 -0.604104 2.19343e-38
0.0235118 -0.00188959 -0.687729 1.84107e-38
0.0703766 -0.0795157 -0.548249 7.74808e-39
0.0699011 -0.0815155 -0.55466 7.84135e-39
0.0246949 -0.00195392 -0.701462 1.44495e-38
0.00959464 -0.00592775 -0.584977 1.63867e-38
0.00457128 0.00233066 -0.611261 1.95322e-38
0.0677174 -0.0792512 -0.596275 7.38002e-39
0.0406087 -0.0167365 -0.719372 1.05136e-38
0.0367564 -0.0103621 -0.720337 1.00519e-38
0.00361983 0.0054102 -0.534493 7.84027e-39
0.0742539 -0.0783061 -0.631649 9.96154e-39
0.0745217 -0.0830227 -0.542898 1.75243e-39
0.105626 -0.0503106 -0.676144 2.30526e-39
-0.0484771 0.0788157 -0.587732 7.93319e-39
0.0679801 -0.0757001 -0.599438 8.94667e-39
