# .PCD v.7 - Point Cloud Data file format
VERSION .7
FIELDS x y z rgb
SIZE 4 4 4 4
TYPE F F F F
COUNT 1 1 1 1
WIDTH 61
HEIGHT 1
VIEWPOINT 0 0 0 1 0 0 0
POINTS 61
DATA ascii
0.0275366 0.00399213 -0.708556 2.29509e-38
0.0407565 0.017338 -0.611676 2.35099e-38
0.0373106 0.0186578 -0.607982 2.35099e-38
0.0111332 0.0157695 -0.544389 2.31159e-38
0.0400191 0.017303 -0.606083 2.32307e-38
0.0124799 0.0262985 -0.554142 1.9329e-38
-0.040837 -0.0797103 -0.641152 2.0356e-38
-0.0315849 -0.0680272 -0.656326 2.22036e-38
0.00706009 0.0175333 -0.539674 2.29404e-38
-0.0296388 -0.0652119 -0.665199 2.01713e-38
0.0390389 0.011944 -0.607607 1.31631e-38
-0.0296393 -0.0640679 -0.675363 1.90675e-38
0.0233829 -0.00669206 -0.668077 2.27496e-38
0.0133943 -0.00274189 -0.604591 1.75964e-38
-0.025105 -0.0572692 -0.688622 1.14088e-38
0.0129806 -0.00197566 -0.608783 1.1326e-38
0.0137165 -0.0101574 -0.642279 1.87758e-38
-0.0293751 -0.0629651 -0.685842 1.59314e-38
0.0109905 0.00561353 -0.543074 1.97075e-38
-0.0258747 -0.0607275 -0.699562 1.49162e-38
0.013013 0.0119642 -0.552486 2.11797e-38
0.012261 0.0233856 -0.549741 2.32117e-38
0.0114272 -0.0185448 -0.637491 1.28843e-38
-0.010897 -0.000634517 -0.695716 5.24832e-39
0.0157965 -0.00554529 -0.598613 4.96884e-39
0.0261875 -0.00473735 -0.706858 1.60226e-38
0.00249621 0.00383876 -0.590799 1.75816e-38
0.02283 -0.00667854 -0.665964 1.55544e-38
-0.0356647 -0.0701786 -0.655092 2.00774e-38
0.0153343 0.0114021 -0.551219 2.01652e-38
0.0151016 -0.00689631 -0.594371 1.17754e-38
0.0263496 -0.00502312 -0.700894 1.23333e-38
0.0148752 -0.00475107 -0.594968 2.08056e-38
0.0160025 0.0135508 -0.556747 3.49803e-39
-0.0243591 -0.0579756 -0.703307 1.40854e-38
0.0576458 -0.093086 -0.596912 1.93755e-39
-0.0291524 -0.0627835 -0.690555 1.35332e-38
0.0112157 0.00191592 -0.563896 1.50059e-38
0.0213902 -0.00718588 -0.661248 1.58296e-38
-0.0299289 -0.0662513 -0.679286 1.31634e-38
0.0160608 0.0107118 -0.55293 1.42655e-38
0.00832137 0.000491446 -0.588969 1.8044e-38
0.0149834 -0.0100351 -0.644034 2.17311e-38
0.0128063 -0.00831287 -0.639748 1.40785e-38
0.0233199 -0.0020054 -0.688207 1.85951e-38
-0.0297846 -0.0681978 -0.677192 1.52878e-38
0.0248293 -0.00399084 -0.67907 1.69388e-38
0.0240754 -0.00616473 -0.675627 1.50012e-38
0.0064397 0.0192898 -0.536895 8.76007e-39
0.0185442 -0.011201 -0.647592 1.92411e-38
0.0301609 -0.0115542 -0.725288 9.1289e-39
0.0314754 -0.0136416 -0.721544 8.4857e-39
0.00939431 0.0102881 -0.531361 8.11758e-39
-0.000598913 -0.0294323 -0.72313 8.48533e-39
0.0487101 -0.0840138 -0.603682 1.01448e-38
0.0538272 -0.0878858 -0.593754 7.28783e-39
0.0522211 -0.0731977 -0.600417 9.95974e-39
0.013177 -0.0068952 -0.645305 1.97061e-38
0.00707726 -0.0259104 -0.642631 1.32657e-38
0.0345602 -0.0156983 -0.72811 9.77572e-39
0.0525221 -0.0865825 -0.585978 8.02359e-39
