# .PCD v.7 - Point Cloud Data file format
VERSION .7
FIELDS x y z rgb
SIZE 4 4 4 4
TYPE F F F F
COUNT 1 1 1 1
WIDTH 73
HEIGHT 1
VIEWPOINT 0 0 0 1 0 0 0
POINTS 73
DATA ascii
0.0349559 0.00213411 -0.712607 2.35099e-38
0.0228131 0.0125918 -0.710904 2.35099e-38
0.019202 0.0107279 -0.713332 2.35099e-38
0.0375133 0.0173579 -0.607471 2.35091e-38
0.0398093 0.0169916 -0.612403 2.35099e-38
0.0372479 0.0186368 -0.607996 2.35099e-38
0.0388054 0.0142943 -0.62046 2.11077e-38
-0.0296156 -0.0652031 -0.665207 2.05423e-38
-0.0423407 -0.0803581 -0.642058 2.11862e-38
0.0397316 0.0121985 -0.606787 1.35297e-38
-0.0334462 -0.0696695 -0.653817 1.38066e-38
-0.034116 -0.073827 -0.652176 1.86047e-38
0.0314055 0.00466989 -0.712092 2.35099e-38
0.0154175 0.0148135 -0.550647 2.21045e-38
-0.0305465 -0.0647328 -0.676784 1.47339e-38
-0.0260383 -0.0552937 -0.694992 1.08636e-38
-0.0257458 -0.0574631 -0.699583 1.14095e-38
-0.0274965 -0.0582657 -0.690135 1.01213e-38
-0.0296486 -0.0630818 -0.686045 1.25194e-38
-0.0072007 -0.0380698 -0.695832 1.70395e-38
-0.0300958 -0.0597061 -0.690681 9.93946e-39
-0.0292746 -0.0617046 -0.677395 1.04908e-38
-0.0244279 -0.0586223 -0.694359 1.80519e-38
-0.026498 -0.0609918 -0.700168 1.45453e-38
-0.0408942 -0.0773698 -0.643036 1.85979e-38
-0.0319725 -0.058069 -0.688765 1.38117e-38
0.0126875 0.0123735 -0.558652 3.40619e-39
0.0111504 -0.0168445 -0.634646 1.41743e-38
0.0113986 -0.0200393 -0.636989 1.27918e-38
-0.0223877 -0.0494605 -0.700114 1.29865e-38
0.0127758 -0.0018858 -0.60362 2.16552e-38
-0.0292709 -0.0635384 -0.687131 1.41779e-38
-0.0368558 -0.0580393 -0.6842 9.95975e-39
0.0260242 0.00695862 -0.709187 2.35099e-38
0.0256264 -0.00802833 -0.6936 1.42658e-38
0.0151209 0.0113295 -0.551252 2.09025e-38
0.0224781 -0.0068088 -0.666145 1.75813e-38
-0.00178127 -0.00779771 -0.58223 1.47232e-38
-0.0218748 -0.0503859 -0.724937 5.35102e-39
0.0159778 -0.00701841 -0.647334 2.01624e-38
0.0114772 -0.00881716 -0.640793 1.37101e-38
0.0257859 -0.00523681 -0.701238 1.34386e-38
0.0269444 0.00151319 -0.710214 2.11001e-38
0.00436672 -0.00666065 -0.578923 1.19613e-38
0.00757871 0.0214181 -0.542974 8.11722e-39
-0.0162402 -0.0423114 -0.716042 1.27025e-38
-0.0308836 -0.0619186 -0.674934 1.69445e-38
0.0220752 0.000476615 -0.704265 1.85954e-38
0.0228027 -0.00796442 -0.666207 1.70295e-38
0.0127787 -0.0116486 -0.639223 1.31588e-38
-0.0116289 -0.0391019 -0.705507 1.34404e-38
0.0227067 -0.00541578 -0.673389 1.46296e-38
0.00802631 -0.000897729 -0.5868 1.79511e-38
0.0115096 -0.00483763 -0.584098 2.09946e-38
0.00652932 0.00142675 -0.583506 1.29765e-38
0.0249841 -0.0026417 -0.704173 1.93377e-38
0.0234217 -0.00640892 -0.676018 1.70299e-38
-0.0331065 -0.0605304 -0.663566 9.59167e-39
0.00655388 0.00296427 -0.582378 1.29783e-38
0.00948276 -0.000706981 -0.579271 1.3157e-38
-0.0295105 -0.0672417 -0.690175 1.03267e-38
-0.0403912 -0.0657574 -0.649139 9.95974e-39
0.0364975 0.00752384 -0.610553 1.32538e-38
-0.0051055 -0.0229726 -0.577034 7.74845e-39
-0.0291265 -0.0678414 -0.694478 1.05129e-38
0.0120689 -0.0152872 -0.635412 1.31616e-38
0.00498549 -0.0219954 -0.730417 7.28604e-39
0.00967026 -0.000578867 -0.578308 1.52778e-38
0.00440129 0.0127949 -0.535904 8.20906e-39
-0.0249981 -0.0679762 -0.692688 1.0236e-38
0.00849339 0.0162593 -0.54118 2.23796e-38
-0.0325072 -0.0601982 -0.666899 8.37722e-39
0.0317334 0.0242095 -0.720908 9.22255e-39
