# .PCD v.7 - Point Cloud Data file format
VERSION .7
FIELDS x y z rgb
SIZE 4 4 4 4
TYPE F F F F
COUNT 1 1 1 1
WIDTH 73
HEIGHT 1
VIEWPOINT 0 0 0 1 0 0 0
POINTS 73
DATA ascii
0.0384127 0.0175053 -0.606873 2.35099e-38
-0.0293301 -0.0651346 -0.665024 1.96217e-38
0.0361754 0.000446537 -0.714563 3.49878e-39
-0.0334906 -0.0696789 -0.653813 1.3436e-38
0.0391177 0.0198078 -0.616814 1.00534e-38
0.0336894 -0.00166181 -0.713839 2.09197e-38
-0.0382543 -0.0756963 -0.645775 2.14635e-38
0.0383418 0.0108733 -0.614739 1.34411e-38
-0.0317932 -0.0654743 -0.662326 1.27972e-38
0.0384768 0.010948 -0.614431 1.08578e-38
-0.0380001 -0.075678 -0.645616 2.14635e-38
-0.0151727 -0.0381101 -0.715582 1.35362e-38
-0.0269154 -0.0618791 -0.696725 1.80558e-38
-0.0286284 -0.0637302 -0.694879 1.31638e-38
-0.0380035 -0.0750243 -0.646888 2.00784e-38
-0.0278307 -0.0594123 -0.696516 1.61172e-38
-0.0100768 -0.0328237 -0.686545 1.47357e-38
-0.0306981 -0.0598461 -0.691082 9.20154e-39
0.0132867 -0.00179562 -0.603157 2.0641e-38
-0.0256751 -0.057448 -0.699507 1.03021e-38
0.0206453 -0.00732542 -0.59539 2.22003e-38
0.0127538 -0.0165283 -0.633619 1.2975e-38
0.0289577 0.00113578 -0.728942 7.84249e-39
-0.0287883 -0.0634235 -0.686765 1.50105e-38
0.0129355 -0.00561412 -0.644921 1.50916e-38
-0.0375437 -0.0765569 -0.641118 1.7215e-38
-0.0375039 -0.0802382 -0.646595 1.32574e-38
0.0130052 0.012425 -0.558376 2.57824e-39
0.0245503 -9.15484e-06 -0.704094 1.78614e-38
-0.0218989 -0.0504063 -0.724664 5.44213e-39
0.0121798 -0.010385 -0.638544 1.25134e-38
-0.0154963 -0.0400574 -0.718165 7.45705e-39
-0.037275 -0.0802198 -0.646492 1.32574e-38
-0.0306771 -0.0702162 -0.663265 1.47318e-38
0.0127238 -0.00858098 -0.64005 1.38949e-38
0.0133777 0.0107743 -0.560733 1.34379e-38
-0.00155634 -0.0235428 -0.601797 9.77498e-39
0.0118937 -0.0168606 -0.636534 1.13159e-38
-0.0194344 -0.0465299 -0.718418 8.47122e-39
0.0236341 -0.00401371 -0.677099 2.15489e-38
0.0294814 -0.00718445 -0.722318 6.82472e-39
0.00549162 0.00335401 -0.541611 2.08206e-38
-0.0253949 -0.0562234 -0.697354 1.40861e-38
-0.0158648 -0.036572 -0.718939 6.07592e-39
0.0199091 -0.00744791 -0.650024 1.67504e-38
0.0100423 0.00200167 -0.551031 1.73129e-38
0.00196493 -0.0294882 -0.58523 8.20906e-39
0.0255931 -0.00552461 -0.704013 1.6293e-38
-0.00296944 -0.0133381 -0.569751 1.58338e-38
0.0397991 0.0210778 -0.619596 9.96082e-39
0.0126257 -0.00947992 -0.638181 1.54622e-38
-0.0408393 -0.0777715 -0.636992 9.40801e-39
0.0197301 -0.00518589 -0.707965 1.85108e-38
0.00958144 -0.000691475 -0.579489 1.37094e-38
0.0255697 -0.00253437 -0.703692 1.96142e-38
0.0221739 -0.10483 -0.585394 7.56477e-39
0.0215289 -0.104914 -0.585539 7.56441e-39
-0.0423072 -0.0823985 -0.638011 9.13214e-39
0.0162377 -0.00783036 -0.634542 1.52746e-38
-0.0156665 -0.042266 -0.720152 4.42725e-39
-0.0384239 -0.0699679 -0.642118 9.77571e-39
0.0119588 -0.0752005 -0.590012 6.55098e-39
-0.0299869 -0.06704 -0.67614 1.29779e-38
-0.0043373 -0.0207905 -0.573711 8.11758e-39
0.0216734 -0.101478 -0.593996 7.56441e-39
-0.00723078 -0.0254145 -0.582116 8.76043e-39
0.0130362 0.00381046 -0.558844 1.30651e-38
-0.0048679 -0.0188735 -0.568602 8.4842e-39
0.0218973 -0.108646 -0.605403 1.75279e-39
0.00142205 -0.00889552 -0.553644 8.02359e-39
0.0278682 0.0083847 -0.721515 6.5485e-39
-0.00534705 -0.0196974 -0.56833 8.57604e-39
-0.0229099 -0.0625139 -0.6187 9.59132e-39
