# .PCD v.7 - Point Cloud Data file format
VERSION .7
FIELDS x y z rgb
SIZE 4 4 4 4
TYPE F F F F
COUNT 1 1 1 1
WIDTH 90
HEIGHT 1
VIEWPOINT 0 0 0 1 0 0 0
POINTS 90
DATA ascii
0.0230374 0.0122164 -0.710644 2.35099e-38
0.0362362 0.0178601 -0.622213 2.35099e-38
0.0402253 0.0170551 -0.619729 2.35099e-38
0.0380891 0.0192263 -0.613445 2.35099e-38
0.0302799 0.00908019 -0.710457 2.35099e-38
0.0144849 0.0157771 -0.542297 2.17304e-38
0.0132323 0.0160252 -0.543118 1.36255e-38
-0.040362 -0.0783455 -0.641045 2.10958e-38
-0.0337706 -0.0696983 -0.653952 1.43576e-38
0.0392206 0.0202929 -0.61727 1.03278e-38
0.0388268 0.0198141 -0.617229 1.03289e-38
0.00379407 -0.0130676 -0.585283 2.12773e-38
-0.0162025 -0.040656 -0.703647 1.93459e-38
-0.0267718 -0.0593508 -0.695847 1.59285e-38
0.039175 0.0203879 -0.61766 9.9601e-39
0.034721 0.00620264 -0.7117 6.54811e-39
-0.00374569 -0.0103921 -0.563976 8.1165e-39
0.0392859 0.0109381 -0.61346 1.02132e-38
-0.0314225 -0.0707802 -0.658843 1.7959e-38
-0.0289881 -0.0628629 -0.685609 1.29754e-38
-0.0170464 -0.0361479 -0.642007 1.01195e-38
0.00992078 -0.00841046 -0.581424 2.23869e-38
-0.0178856 -0.0399182 -0.69514 1.41832e-38
-0.00477351 -0.0259687 -0.628818 1.2885e-38
-0.0284524 -0.0597162 -0.689594 1.10415e-38
-0.0306496 -0.0635408 -0.688026 1.52842e-38
-0.0163482 -0.041987 -0.716361 1.34393e-38
-0.0300382 -0.0646023 -0.696462 1.29776e-38
0.00896062 -0.0207787 -0.638645 1.39003e-38
0.0120675 -0.00561499 -0.645787 1.43551e-38
0.011267 -0.0165525 -0.634506 1.50973e-38
0.0145327 -0.00275001 -0.597946 2.14675e-38
-0.0368605 -0.0659101 -0.653887 9.77679e-39
0.0125088 -0.0103803 -0.638467 1.18669e-38
0.00488949 0.00394741 -0.542624 2.12776e-38
0.0402668 0.0117886 -0.619999 1.13289e-38
-0.00855232 -0.0318177 -0.696295 7.90901e-39
0.0106749 -0.0180709 -0.637462 1.23308e-38
0.00499813 -0.0043733 -0.558065 2.03571e-38
0.0269374 0.0155755 -0.708352 9.95867e-39
-0.0281211 -0.0617614 -0.689988 1.31605e-38
-0.00433349 -0.0244903 -0.610411 1.7409e-38
-0.0300729 -0.0662472 -0.682004 1.27928e-38
0.0123409 -0.00858632 -0.64035 1.39871e-38
0.0400083 0.0138617 -0.616848 1.9355e-38
-0.030543 -0.0670696 -0.676377 1.23286e-38
-0.0144035 -0.0393808 -0.697813 1.48225e-38
0.0304099 0.0135149 -0.712235 8.76192e-39
0.0121404 -0.0167624 -0.63802 1.27925e-38
0.00332564 -0.00396906 -0.561338 2.07259e-38
0.0150415 0.00950574 -0.55817 1.25195e-38
-0.0285818 -0.0658505 -0.686788 2.05419e-38
0.0139548 0.0109205 -0.546791 1.78517e-38
-0.00756099 -0.0321707 -0.627579 9.22398e-39
0.0104926 -0.00522294 -0.580476 1.75776e-38
0.0110774 -0.0163105 -0.631671 1.15878e-38
0.0246203 -0.00628794 -0.687498 1.54604e-38
0.00998555 -0.00887192 -0.576028 2.10868e-38
0.00928448 -0.00429288 -0.567114 2.01674e-38
0.00993648 -0.0165378 -0.62874 1.03021e-38
0.0171186 -0.0118306 -0.643728 1.56469e-38
-0.000488108 -0.00653453 -0.554167 7.65516e-39
0.0255681 0.00707841 -0.709123 2.35099e-38
-0.04221 -0.0778711 -0.637967 9.8679e-39
0.00141919 0.002905 -0.54064 8.11651e-39
0.00164232 0.00335877 -0.543658 2.21114e-38
0.010057 0.0101064 -0.531334 8.30089e-39
-0.00848113 -0.0233592 -0.587597 8.5764e-39
-0.0326558 -0.0711742 -0.677239 9.59203e-39
-0.0108995 -0.0249839 -0.592141 1.90751e-38
-0.0335355 -0.0609519 -0.665955 1.10418e-38
-0.0344547 -0.0720015 -0.644587 1.81405e-38
0.0212934 -0.010343 -0.720329 5.90276e-39
0.0202815 0.0320484 -0.550306 8.02395e-39
0.0120256 0.0036025 -0.561254 1.36172e-38
-0.000852008 -0.067745 -0.588981 6.91831e-39
-0.0386244 -0.0694713 -0.643531 9.59204e-39
-0.0390648 -0.083559 -0.651712 9.40764e-39
-0.0062365 -0.0245413 -0.721857 7.7492e-39
-0.00755678 -0.0287778 -0.704052 8.37216e-39
-0.0306155 -0.0631654 -0.64153 9.95938e-39
-0.00554814 -0.0197014 -0.568357 8.11686e-39
-0.0380209 -0.0692541 -0.642051 9.77679e-39
-0.00305197 -0.0102825 -0.559022 8.11686e-39
-0.0413418 -0.0724337 -0.636471 9.5924e-39
-0.0334225 -0.0731198 -0.667386 9.95974e-39
-0.0234635 -0.0556079 -0.721141 7.19242e-39
0.0302075 0.023376 -0.716231 1.05133e-38
0.025863 0.024276 -0.719486 1.02363e-38
-0.0207627 -0.0559244 -0.719273 7.19313e-39
