# .PCD v.7 - Point Cloud Data file format
VERSION .7
FIELDS x y z rgb
SIZE 4 4 4 4
TYPE F F F F
COUNT 1 1 1 1
WIDTH 101
HEIGHT 1
VIEWPOINT 0 0 0 1 0 0 0
POINTS 101
DATA ascii
0.0394361 0.0172145 -0.612767 2.35073e-38
0.0405073 0.0176138 -0.619354 2.35099e-38
0.0407504 0.016949 -0.619262 2.35099e-38
0.0399056 0.0170276 -0.612477 2.32315e-38
-0.041227 -0.0801092 -0.641675 2.13698e-38
-0.0404801 -0.0783356 -0.641193 2.06337e-38
-0.0157233 -0.0407212 -0.703308 1.98997e-38
-0.0310955 -0.0673987 -0.655906 1.96181e-38
-0.0329265 -0.0697855 -0.653419 1.38938e-38
0.039615 0.0126112 -0.613463 1.31573e-38
0.0405191 0.019466 -0.61635 9.77572e-39
-0.0373716 -0.0756017 -0.643258 2.05408e-38
0.0398509 0.0201617 -0.617069 1.00523e-38
0.0393285 0.0125573 -0.607015 1.73093e-38
-0.0375392 -0.0759339 -0.645431 1.88751e-38
-0.0299132 -0.0611932 -0.680975 1.18702e-38
0.0131104 -0.0213689 -0.643443 2.20195e-38
0.0100068 -0.0212078 -0.648609 2.00819e-38
0.00959325 -0.0236739 -0.644926 1.80529e-38
-0.0322132 -0.0654198 -0.66264 1.52821e-38
-0.0353032 -0.0752589 -0.645445 2.26642e-38
-0.033771 -0.0733375 -0.652586 2.09081e-38
0.0401002 0.0201951 -0.617266 9.68388e-39
-0.0323354 -0.0706902 -0.659388 1.56497e-38
-0.0159991 -0.0420346 -0.716196 1.13152e-38
-0.0385951 -0.0805197 -0.647469 1.47304e-38
-0.0346702 -0.0730152 -0.653311 1.90649e-38
-0.0272374 -0.0617605 -0.701299 1.02993e-38
-0.0326721 -0.0691746 -0.657773 2.22018e-38
0.00966359 -0.0208932 -0.638243 1.40803e-38
0.0120269 -0.0166772 -0.634009 1.53739e-38
-0.0293247 -0.0628293 -0.685981 1.57412e-38
0.0121949 -0.0159767 -0.633687 1.48211e-38
-0.0345033 -0.0756061 -0.651409 1.74029e-38
0.0110515 -0.0181298 -0.637161 1.22368e-38
-0.0396246 -0.0755403 -0.640224 9.86754e-39
-0.0312999 -0.0669907 -0.676625 1.46324e-38
0.0119679 -0.0102888 -0.638878 1.17766e-38
-0.0281907 -0.0636381 -0.694093 1.20513e-38
-0.00602219 -0.0176678 -0.579518 2.01735e-38
0.0201735 -0.0139536 -0.652195 1.97979e-38
0.00891931 -0.0141407 -0.594257 1.37022e-38
0.00665219 -0.00333629 -0.557267 2.17386e-38
0.0100969 -0.0193568 -0.636721 1.44484e-38
0.00742468 -0.00468063 -0.558877 1.73129e-38
0.00889875 -0.019488 -0.614895 1.31663e-38
0.012561 -0.0189725 -0.639641 1.73078e-38
0.040746 0.0137132 -0.61647 1.56693e-38
0.00887628 -0.0204039 -0.635515 1.27853e-38
-0.0295063 -0.0657573 -0.687315 1.31623e-38
-0.00655636 -0.019371 -0.572017 8.20977e-39
-0.00368361 -0.0259476 -0.621471 1.27031e-38
0.00731381 -0.0084229 -0.577497 1.88702e-38
-0.0142943 -0.0409801 -0.710118 1.34382e-38
0.0124035 -0.0168083 -0.63798 1.37166e-38
-0.000902784 -0.0271467 -0.678627 9.75435e-39
0.00177624 0.00532837 -0.54551 2.19259e-38
0.011139 -0.0165467 -0.629319 1.65736e-38
0.00138322 -0.0104828 -0.565752 1.56548e-38
0.0242576 -0.00762882 -0.684423 1.79526e-38
-0.0279089 -0.0641907 -0.683944 1.90628e-38
0.0226936 -0.0115503 -0.658424 1.96124e-38
-0.0414997 -0.0779398 -0.637604 1.01441e-38
-0.0341353 -0.0691382 -0.647438 1.61231e-38
-0.00391014 0.0038517 -0.544268 8.02395e-39
-0.0157376 -0.108318 -0.597042 2.02939e-39
0.0233468 -0.00949586 -0.67391 1.80444e-38
0.00893242 -0.0227739 -0.633797 1.65796e-38
-0.0354364 -0.0719027 -0.645178 1.30814e-38
-0.0156144 -0.038343 -0.712164 9.38307e-39
-0.00731621 -0.0304985 -0.629264 1.787e-38
-0.00409513 -0.0196113 -0.573397 8.76151e-39
0.0139934 0.00549957 -0.553232 1.56516e-38
-0.0179954 -0.044813 -0.745956 9.4055e-39
-0.000509798 -0.0306093 -0.585894 7.83994e-39
-0.0343025 -0.0677192 -0.647065 9.59132e-39
-0.0354954 -0.0779815 -0.657044 1.02352e-38
-0.0346225 -0.0740472 -0.650362 2.19245e-38
-0.00626674 -0.0177392 -0.56567 8.11686e-39
0.0377271 0.0122531 -0.623985 9.96154e-39
-0.00671489 -0.0281146 -0.595116 1.56516e-38
-0.0164859 -0.0428678 -0.720626 4.24287e-39
-0.0345372 -0.0741334 -0.655818 2.32178e-38
-0.0355201 -0.0730194 -0.673352 9.59131e-39
0.00820503 -0.00245693 -0.549287 2.00784e-38
-0.0107147 -0.0304585 -0.600808 9.49948e-39
-0.0109577 -0.0351547 -0.709996 1.42709e-38
0.00363548 0.00152629 -0.543364 2.01767e-38
-0.0396827 -0.0804745 -0.633802 9.40801e-39
-0.016196 -0.107874 -0.718129 1.84428e-39
0.0386329 0.011421 -0.624121 1.06969e-38
-0.0377448 -0.0817407 -0.651414 1.00523e-38
-0.0146634 -0.107035 -0.587604 7.74808e-39
0.0379346 0.00727582 -0.623364 9.77607e-39
-0.0393967 -0.0726263 -0.635596 9.68387e-39
-0.0333851 -0.0731469 -0.670288 9.95938e-39
-0.00269904 -0.0110301 -0.557681 8.02502e-39
-0.00759611 -0.0418823 -0.725253 7.74813e-39
-0.00215305 -0.0324002 -0.600618 9.40728e-39
-0.00452136 -0.0145334 -0.555762 8.20798e-39
0.0454317 0.0350034 -0.720718 1.06051e-38
