# .PCD v.7 - Point Cloud Data file format
VERSION .7
FIELDS x y z rgb
SIZE 4 4 4 4
TYPE F F F F
COUNT 1 1 1 1
WIDTH 114
HEIGHT 1
VIEWPOINT 0 0 0 1 0 0 0
POINTS 114
DATA ascii
0.0382356 0.0173153 -0.606771 2.35099e-38
0.0404695 0.01706 -0.619369 2.35099e-38
0.0327203 0.0155402 -0.606092 7.56409e-39
0.0110126 0.0170708 -0.544311 8.54898e-39
-0.0273124 -0.0621907 -0.69714 1.86075e-38
0.0148471 0.0205263 -0.549583 2.22925e-38
-0.0414387 -0.0800539 -0.641836 2.16467e-38
-0.0412049 -0.0801606 -0.641745 2.16467e-38
0.0356135 0.000530297 -0.714804 5.34236e-39
0.0139262 0.0210924 -0.55026 2.22925e-38
-0.0308617 -0.0674664 -0.655883 1.94322e-38
0.0372062 0.0206843 -0.611045 9.96046e-39
-0.040317 -0.0783815 -0.641225 2.01695e-38
-0.0375708 -0.0755481 -0.643342 2.0539e-38
0.0396777 0.012587 -0.613395 1.52825e-38
0.0385317 0.0128727 -0.60751 1.82306e-38
0.0136785 0.0226509 -0.546986 2.24733e-38
0.0135405 0.0192623 -0.545082 2.14555e-38
0.0106486 -0.024031 -0.643813 1.98043e-38
0.0106918 0.0208917 -0.541902 8.76151e-39
-0.0356865 -0.075152 -0.645649 2.24772e-38
-0.00325652 -0.0245728 -0.621914 1.50116e-38
-0.0195231 -0.0456359 -0.707471 2.14642e-38
0.0102652 -0.0210975 -0.637882 1.4909e-38
0.0157696 0.016633 -0.550343 2.3029e-38
-0.0321817 -0.0639912 -0.698413 1.53736e-38
0.0409187 0.0198664 -0.616925 1.00523e-38
-0.0260932 -0.0573912 -0.699879 1.20438e-38
0.00689028 -0.0249552 -0.64403 1.46346e-38
-0.0268022 -0.0545703 -0.69661 1.55583e-38
0.0104815 0.0215619 -0.541718 8.39346e-39
-0.0292311 -0.0628534 -0.686034 1.8138e-38
0.00708895 -0.00349859 -0.557147 2.08152e-38
-0.0323794 -0.0692577 -0.657696 2.17372e-38
-0.0218866 -0.0535376 -0.70652 1.93423e-38
0.0377164 0.0120475 -0.613918 1.39892e-38
0.0125604 -0.0205617 -0.641162 2.10994e-38
-0.0273461 -0.0621749 -0.702182 1.64792e-38
0.0108017 -0.0180425 -0.637233 1.30644e-38
-0.0167523 -0.0549832 -0.718455 6.64142e-39
0.0236927 -0.0124865 -0.682224 1.48258e-38
-0.0294481 -0.0624777 -0.69125 2.09082e-38
-0.00389849 -0.0258781 -0.621588 1.1134e-38
-0.0173921 -0.0466979 -0.709305 1.49082e-38
-0.0282747 -0.0636139 -0.694035 1.40821e-38
-0.0318037 -0.0693303 -0.672007 1.35325e-38
-0.0355241 -0.0658746 -0.650787 9.59132e-39
0.0123275 -0.0114662 -0.638676 1.23304e-38
0.0129462 -0.0130343 -0.636528 1.25127e-38
0.0109197 -0.0162394 -0.632127 1.279e-38
-0.0290851 -0.0645845 -0.673801 1.93372e-38
-0.0362158 -0.0763918 -0.640026 1.12472e-38
0.0258471 -0.0042965 -0.70867 1.60182e-38
0.00534189 -0.0252079 -0.663182 1.17837e-38
0.0152962 0.0254633 -0.546297 8.76223e-39
0.00947477 -0.0192403 -0.61677 1.61166e-38
0.0299525 0.00073795 -0.722598 4.98225e-39
-0.0299283 -0.0621423 -0.678921 1.52835e-38
-0.0346913 -0.0755516 -0.651385 1.90624e-38
-0.0249214 -0.0577062 -0.710738 1.25163e-38
0.014554 0.00774024 -0.555761 1.17795e-38
0.0415049 0.0203488 -0.619198 9.96082e-39
0.00961457 -0.0225135 -0.63598 1.72203e-38
0.00871576 -0.0206978 -0.612016 1.49154e-38
0.00812953 -0.0216875 -0.636966 1.88816e-38
0.0102232 -0.0182894 -0.608867 1.27964e-38
0.0161691 -0.0119452 -0.58722 2.20109e-38
0.0284833 -0.00436823 -0.716796 1.56588e-38
0.024349 -0.00766263 -0.684153 1.80444e-38
0.0136621 -0.00880367 -0.636581 1.60175e-38
0.0396339 0.022559 -0.613404 9.95938e-39
0.00665172 -0.0252288 -0.721761 7.56373e-39
0.00444553 -0.0280581 -0.646261 1.29765e-38
0.00345658 0.00159118 -0.543333 2.1649e-38
-0.000266537 -0.00246622 -0.548262 8.20725e-39
-0.0351541 -0.071986 -0.645111 9.67558e-39
-0.00512074 -0.0192606 -0.573808 8.39309e-39
-0.000333322 -0.00461963 -0.550415 7.83991e-39
0.0101653 -0.0251565 -0.720339 6.82546e-39
0.00188031 -0.00168744 -0.547624 6.54594e-39
-0.0420763 -0.0822506 -0.637081 9.96046e-39
0.00900584 -0.0230388 -0.614442 1.01188e-38
0.0201766 -0.0134981 -0.602946 1.30615e-38
-0.0148853 -0.0461415 -0.714791 1.12284e-38
-0.0315542 -0.0688219 -0.667794 1.3158e-38
0.0122231 0.0226261 -0.542975 8.66895e-39
0.0044645 -0.010164 -0.56882 1.56537e-38
0.0248476 -0.0069242 -0.705887 1.55558e-38
-0.0161718 -0.0454746 -0.715943 1.26117e-38
-0.0348343 -0.074045 -0.655964 2.34047e-38
0.011571 -0.0086203 -0.584849 2.31233e-38
0.0410008 0.0246245 -0.614063 9.40693e-39
0.0381437 0.00614743 -0.714284 8.30094e-39
-0.0362784 -0.0706248 -0.679509 9.77461e-39
0.0339726 0.00580324 -0.611153 1.54625e-38
0.0144736 -0.0168309 -0.605345 1.42633e-38
-0.0312904 -0.0693128 -0.693308 1.00516e-38
-0.0404962 -0.0782124 -0.637112 9.5924e-39
-0.03394 -0.0696713 -0.689436 9.95793e-39
0.006658 -0.0210641 -0.720428 7.56444e-39
0.00305563 -0.0162144 -0.585074 1.75912e-38
0.0141624 -0.0166246 -0.589522 1.62862e-38
-0.00838291 -0.0211875 -0.56761 8.02502e-39
0.0185196 -0.0133785 -0.72242 6.82617e-39
-0.0349185 -0.0723895 -0.669273 1.03256e-38
0.0246026 -0.00617051 -0.705005 1.23254e-38
-0.00453692 -0.0233061 -0.564695 7.93175e-39
-0.00230378 -0.00831322 -0.555863 8.20725e-39
-0.038541 -0.0801371 -0.656954 9.68387e-39
0.000321655 0.000418513 -0.553528 1.95245e-38
-0.00191849 -0.0154321 -0.554084 8.20869e-39
0.000443219 0.00146306 -0.540524 7.93211e-39
-0.0362171 -0.0784862 -0.664693 9.95902e-39
-0.0338931 -0.106152 -0.566699 1.66024e-39
