# .PCD v.7 - Point Cloud Data file format
VERSION .7
FIELDS x y z rgb
SIZE 4 4 4 4
TYPE F F F F
COUNT 1 1 1 1
WIDTH 123
HEIGHT 1
VIEWPOINT 0 0 0 1 0 0 0
POINTS 123
DATA ascii
0.0375455 0.0177469 -0.607238 2.35099e-38
0.0393917 0.017528 -0.612977 2.35099e-38
0.0396952 0.0175422 -0.620022 2.35091e-38
0.0326102 0.0172499 -0.603151 1.98231e-38
0.0344335 0.00177375 -0.71178 2.35099e-38
0.0336718 0.00244962 -0.712617 2.35091e-38
0.0326748 0.0123091 -0.603616 2.35099e-38
0.0319079 0.0132509 -0.603372 2.35088e-38
0.033453 -0.00123965 -0.713808 2.23934e-38
0.0326369 0.0146632 -0.604523 2.35073e-38
0.0123823 0.016238 -0.543337 1.94201e-38
0.032265 0.0158264 -0.606429 8.76263e-39
-0.0401216 -0.0806605 -0.640847 2.16464e-38
-0.02277 -0.0526592 -0.699499 1.26999e-38
-0.0300324 -0.0649549 -0.665917 2.29418e-38
-0.0203206 -0.046013 -0.70289 1.41696e-38
0.0394018 0.0149546 -0.608924 1.2812e-38
-0.0423702 -0.0813467 -0.641636 2.24805e-38
-0.0348209 -0.0722282 -0.648398 2.24819e-38
0.0380297 0.0171603 -0.616629 1.81525e-38
-0.0371608 -0.0757426 -0.643091 1.87872e-38
0.00375641 -0.0110113 -0.584303 2.21985e-38
0.0382856 0.0169009 -0.616037 1.81525e-38
-0.039764 -0.0786375 -0.640931 2.21088e-38
-0.0222386 -0.0509761 -0.70419 2.00759e-38
-0.028058 -0.0595027 -0.696387 2.10018e-38
0.0392697 0.0128417 -0.613617 1.65707e-38
-0.0382196 -0.075335 -0.64571 2.09085e-38
0.0313594 -0.00267014 -0.71875 3.59821e-39
-0.0202399 -0.0430072 -0.700178 1.07779e-38
-0.0252585 -0.0615568 -0.69411 2.22032e-38
0.0136785 0.0191771 -0.545139 2.17314e-38
0.0406495 0.0194461 -0.616708 9.77608e-39
-0.0175484 -0.0407444 -0.696767 2.35033e-38
0.0391081 0.0208581 -0.618094 9.59204e-39
-0.0336933 -0.0733528 -0.652528 2.11826e-38
-0.0336252 -0.0734021 -0.652446 2.11826e-38
-0.032279 -0.0678787 -0.68488 1.20564e-38
0.0324508 -0.00362046 -0.717736 3.59821e-39
-0.0174581 -0.0460965 -0.705145 2.18376e-38
-0.0231607 -0.0528891 -0.707389 2.22929e-38
-0.018753 -0.0420012 -0.70509 1.52878e-38
-0.016155 -0.0374936 -0.703717 2.09139e-38
-0.0340817 -0.0717346 -0.653029 2.20149e-38
0.0165176 0.0161831 -0.549971 2.30272e-38
0.0120715 -0.011321 -0.638879 1.26056e-38
-0.0197674 -0.0462292 -0.705058 2.22968e-38
0.00778052 -0.0203503 -0.598367 1.77742e-38
-0.0105043 -0.0307939 -0.686326 1.58392e-38
0.0365481 0.000786607 -0.716913 5.99748e-39
0.0353642 0.00962116 -0.616707 1.62891e-38
-0.00942857 -0.032921 -0.690205 2.08177e-38
-0.0197769 -0.0436451 -0.70405 1.76766e-38
0.0378805 0.0113539 -0.610078 1.95184e-38
-0.00381026 -0.0249389 -0.624773 1.14085e-38
-0.0038694 -0.0258945 -0.621647 1.29739e-38
-0.000925599 -0.0221889 -0.615896 1.27931e-38
0.0288546 -0.00443284 -0.711708 2.17426e-38
-0.0359387 -0.0656727 -0.651106 1.0053e-38
-0.0305761 -0.0668676 -0.676946 2.0633e-38
0.014001 0.00805119 -0.561035 1.04909e-38
0.00786029 -0.00517646 -0.562503 2.07209e-38
-0.0306438 -0.0581158 -0.706941 1.46295e-38
0.0255684 -0.00412632 -0.712636 2.0167e-38
0.0363348 0.000974206 -0.717101 6.08968e-39
-0.0343805 -0.0691174 -0.648091 1.53852e-38
-0.0149185 -0.0378519 -0.697461 2.21106e-38
-0.0102676 -0.0352807 -0.699666 2.17419e-38
0.0282459 -0.00541158 -0.719834 3.6886e-39
0.0226199 -0.00780825 -0.691176 1.57438e-38
-0.0131746 -0.0320232 -0.629458 9.68352e-39
-0.00191834 -0.0259169 -0.686521 8.27671e-39
0.0136833 0.0231778 -0.563116 8.30125e-39
-0.0251703 -0.0471108 -0.69699 9.40584e-39
0.0343282 0.0149067 -0.59723 9.13142e-39
-0.0128245 -0.0345097 -0.63162 6.27266e-39
0.0237216 -0.00435416 -0.700791 1.50966e-38
0.0410726 0.0206206 -0.619945 9.95902e-39
0.0110152 -0.000372571 -0.557718 1.88763e-38
-0.0250082 -0.0527677 -0.693747 9.12889e-39
-0.0189479 -0.0482235 -0.696794 1.17718e-38
-0.0155097 -0.0421014 -0.710307 1.16851e-38
0.0314357 0.0149006 -0.600057 9.40692e-39
-0.00489214 -0.0232005 -0.589907 1.34353e-38
0.0206329 -0.00976939 -0.72387 6.64215e-39
0.0161826 0.0285114 -0.553553 8.76151e-39
0.0264798 -0.00813016 -0.716519 1.09529e-38
-0.0120602 -0.0344847 -0.691458 1.53753e-38
-0.00884769 -0.0336751 -0.706668 6.2531e-39
0.00609142 -0.0135507 -0.58022 2.14663e-38
-0.0278499 -0.0546113 -0.71955 8.57605e-39
0.00999391 0.0196464 -0.538218 8.85263e-39
-0.000206605 -0.0302462 -0.580695 8.7619e-39
0.0123175 0.0225664 -0.542974 8.76151e-39
-0.00639564 -0.0324089 -0.616607 1.88785e-38
0.00987236 -0.00290755 -0.5651 1.67446e-38
0.0294286 0.00649676 -0.684132 1.00505e-38
-0.0285242 -0.0570408 -0.71859 9.77352e-39
-0.00131539 -0.0196946 -0.621219 1.35339e-38
-0.0332268 -0.0712111 -0.667904 1.43627e-38
-0.0350309 -0.0711141 -0.658411 1.41707e-38
-0.0175071 -0.0447801 -0.717108 1.54665e-38
-0.0114177 -0.0279253 -0.616456 1.3987e-38
-0.0238952 -0.0554704 -0.708533 2.13688e-38
-0.0248075 -0.0480193 -0.671337 9.68315e-39
0.0330632 0.0178959 -0.599733 9.31509e-39
-0.0341587 -0.071628 -0.677497 1.02349e-38
0.0241532 -0.00590591 -0.705397 1.26959e-38
0.0240256 -0.00550768 -0.704692 1.27939e-38
-0.0344274 -0.074112 -0.664726 1.03274e-38
-0.0200865 -0.0345347 -0.62085 9.40621e-39
-0.0372913 -0.0797937 -0.65538 9.68314e-39
-0.0155146 -0.0373173 -0.61828 9.40837e-39
-0.0351555 -0.0705942 -0.638159 9.59096e-39
-0.0126349 -0.0411192 -0.722333 5.9053e-39
-0.042402 -0.0794935 -0.63513 9.59132e-39
-0.0126374 -0.0411106 -0.722525 6.54887e-39
0.0456881 0.0276765 -0.685716 9.96047e-39
-0.0350761 -0.0750381 -0.66473 9.49876e-39
-0.00779286 -0.031493 -0.670479 1.41725e-38
0.00465889 0.00944023 -0.587352 7.93174e-39
0.0338098 0.0152852 -0.591959 9.31509e-39
0.0534079 0.0653223 -0.581892 8.11686e-39
