# .PCD v.7 - Point Cloud Data file format
VERSION .7
FIELDS x y z rgb
SIZE 4 4 4 4
TYPE F F F F
COUNT 1 1 1 1
WIDTH 123
HEIGHT 1
VIEWPOINT 0 0 0 1 0 0 0
POINTS 123
DATA ascii
0.0383355 0.0170298 -0.606537 2.35091e-38
0.0402657 0.0170293 -0.619535 2.35084e-38
0.0341886 0.0158281 -0.601963 2.35099e-38
0.0337801 -0.00152954 -0.713517 2.30402e-38
0.0322466 0.0124315 -0.604891 2.35099e-38
0.0339653 0.0114229 -0.601246 2.35099e-38
-0.023702 -0.0519606 -0.700299 1.29765e-38
-0.0404312 -0.0781691 -0.641462 2.24805e-38
-0.00552669 -0.0280113 -0.644738 2.13742e-38
-0.0423605 -0.0791027 -0.642625 2.27571e-38
0.00243184 -0.00990257 -0.5853 2.20202e-38
-0.0426981 -0.0811187 -0.641745 2.20191e-38
-0.00580879 -0.0295575 -0.68881 1.96199e-38
0.0382876 0.0169261 -0.61653 1.31688e-38
-0.0316098 -0.0682255 -0.655918 2.22024e-38
-0.0373804 -0.0755844 -0.643267 1.92475e-38
0.0379836 0.0171779 -0.616339 1.80552e-38
-0.0280173 -0.060299 -0.68696 1.23304e-38
-0.0292028 -0.0647374 -0.669062 1.28882e-38
-0.00729686 -0.029303 -0.658196 2.08188e-38
-0.0137477 -0.0393539 -0.701771 2.26688e-38
0.0356917 0.015041 -0.607705 1.97914e-38
0.0392101 0.0118709 -0.612917 1.5186e-38
-0.0243557 -0.0519961 -0.708201 2.13709e-38
0.0402776 0.0119315 -0.61263 1.59253e-38
-0.018206 -0.0449511 -0.704303 2.34989e-38
0.0353479 0.00953312 -0.611867 1.84078e-38
-0.00524924 -0.026014 -0.631497 1.98965e-38
-0.0205777 -0.051572 -0.715999 7.54998e-39
0.0327006 0.0060246 -0.609837 1.93301e-38
-0.0264023 -0.0601378 -0.692698 2.11829e-38
-0.0281211 -0.0637947 -0.693726 1.37116e-38
0.0278425 -0.00507096 -0.719819 2.76699e-39
-0.00604645 -0.0145333 -0.579583 2.19252e-38
-0.0304925 -0.0667878 -0.688149 1.2141e-38
-0.0188413 -0.0463322 -0.704873 2.07255e-38
-0.0229337 -0.0483 -0.703224 1.39978e-38
-0.0318195 -0.0701054 -0.663454 2.19205e-38
0.0038921 -0.0269212 -0.642702 1.22371e-38
0.00265317 -0.0202542 -0.599188 1.85161e-38
0.0387365 0.011604 -0.617067 2.17347e-38
0.0264016 -0.00484874 -0.711747 2.01688e-38
0.010844 -0.0184533 -0.635884 2.03499e-38
0.00177117 -0.0141522 -0.577754 2.00841e-38
-0.00319386 -0.0277021 -0.633975 1.31591e-38
-0.0122797 -0.0373436 -0.707431 1.14967e-38
-0.0272754 -0.0605965 -0.704003 8.27348e-39
0.0118884 -0.0132359 -0.640666 1.94283e-38
0.0284104 0.0103246 -0.605131 9.68315e-39
0.0307031 0.0116668 -0.600705 9.22325e-39
0.00417301 -0.0193613 -0.596165 1.86111e-38
-0.0109525 -0.0329958 -0.631492 1.3431e-38
-0.0304637 -0.0669528 -0.676823 1.89702e-38
0.0250251 -0.00806292 -0.719869 6.99392e-39
-0.00262455 -0.0142868 -0.573408 2.08189e-38
0.00598595 -0.00583604 -0.558228 2.01698e-38
0.0292357 -0.00499039 -0.720363 4.15067e-39
0.0061141 -0.0244742 -0.637029 2.10029e-38
0.00302119 -0.00439781 -0.560308 2.19234e-38
0.0318227 -0.00340755 -0.710874 2.24852e-38
0.00357391 -0.0216123 -0.60288 1.10404e-38
-0.0314732 -0.059484 -0.709348 1.19671e-38
0.0201931 0.00847686 -0.602684 9.40764e-39
-0.0388513 -0.0756051 -0.638636 9.40765e-39
0.0256282 -0.00739449 -0.717303 1.0583e-38
-0.0252977 -0.0474491 -0.683564 9.95901e-39
0.0430805 0.019771 -0.612072 9.59204e-39
0.00394082 -0.00293441 -0.562938 2.10947e-38
0.030854 0.0142877 -0.600158 9.31545e-39
-0.0134966 -0.0301456 -0.633715 1.23254e-38
-0.0279959 -0.0556084 -0.683441 9.95901e-39
0.0421076 0.0210514 -0.61314 9.59204e-39
-0.0110461 -0.0352778 -0.690618 1.75877e-38
-0.0103738 -0.0359286 -0.702904 1.52849e-38
-0.00903042 -0.0368531 -0.707465 1.13152e-38
0.000915974 -0.0308339 -0.642466 1.5747e-38
0.0127024 -0.00821057 -0.632411 1.14081e-38
-0.0187887 -0.0463382 -0.718464 1.0492e-38
-0.00670466 -0.0309379 -0.692274 1.90664e-38
-0.0156396 -0.0354047 -0.642244 1.34339e-38
0.0248916 -0.00745455 -0.68446 1.64767e-38
-0.015501 -0.0343211 -0.637131 1.23232e-38
0.0360823 0.0216035 -0.600481 8.94739e-39
-0.00435174 -0.0273981 -0.686841 1.80519e-38
0.0214929 -0.00310468 -0.682788 1.74005e-38
-0.0127093 -0.038695 -0.704813 1.18579e-38
-0.0335742 -0.0709627 -0.66784 1.5281e-38
-0.0126541 -0.0366919 -0.706038 2.19245e-38
-0.0359087 -0.0756858 -0.649351 2.21074e-38
-0.0394646 -0.0772735 -0.651695 1.41747e-38
-0.0127557 -0.0309416 -0.608764 9.59131e-39
-0.00356305 -0.025708 -0.646571 1.77764e-38
-0.0408493 -0.0780433 -0.63771 1.01452e-38
-0.000352202 -0.00723846 -0.566439 2.11854e-38
0.00610302 -0.0218158 -0.617281 1.98958e-38
-0.0355826 -0.07544 -0.66058 1.02334e-38
0.0174876 -0.00955634 -0.597646 1.88698e-38
0.00856365 0.00330077 -0.586791 9.13033e-39
0.0189826 -0.00256486 -0.657468 1.03292e-38
0.00863227 -0.0201403 -0.629824 1.69319e-38
0.0343367 0.0148086 -0.591372 8.67008e-39
-0.00356232 -0.0288834 -0.664951 1.2056e-38
0.0196422 0.00369927 -0.691144 9.77498e-39
0.00189375 -0.0293523 -0.721213 7.65486e-39
-0.0149704 -0.0257866 -0.571925 8.39237e-39
-0.00720396 -0.0185614 -0.568828 8.30125e-39
0.0211256 -0.00469359 -0.678006 1.27802e-38
0.0236812 -0.00128855 -0.687015 8.76048e-39
0.0039063 -0.0138252 -0.580222 2.22972e-38
-0.0314332 -0.0609322 -0.681901 1.43594e-38
0.0409449 0.0265236 -0.620084 9.40765e-39
-0.00998821 -0.0103588 -0.559464 7.93282e-39
-0.0260653 -0.0620029 -0.722467 8.76085e-39
-0.0399905 -0.0806787 -0.631973 9.5906e-39
-0.0193505 -0.0480745 -0.721692 5.99677e-39
0.0497267 0.0238783 -0.686302 9.59312e-39
0.0222976 -0.00633179 -0.616467 1.40757e-38
-0.0374075 -0.0743809 -0.666459 9.86646e-39
0.0235415 -0.00558598 -0.735633 9.40658e-39
-0.0266941 -0.059659 -0.725005 8.57681e-39
0.0305988 0.013253 -0.598142 9.59204e-39
0.0365401 0.010279 -0.623117 1.00523e-38
-0.00423938 -0.0393466 -0.628041 1.40814e-38
