# .PCD v.7 - Point Cloud Data file format
VERSION .7
FIELDS x y z rgb
SIZE 4 4 4 4
TYPE F F F F
COUNT 1 1 1 1
WIDTH 116
HEIGHT 1
VIEWPOINT 0 0 0 1 0 0 0
POINTS 116
DATA ascii
-0.00347932 -0.0235435 -0.615544 8.73696e-39
0.032923 -0.00369116 -0.716135 1.04098e-38
0.00985302 -0.0205313 -0.638059 1.62912e-38
-0.0200775 -0.0475877 -0.705159 2.35018e-38
-0.0170411 -0.0411889 -0.702533 2.2666e-38
-0.0148834 -0.038096 -0.703057 2.35044e-38
0.00552047 -0.0270601 -0.651583 8.73805e-39
0.0131487 -0.0149612 -0.608787 1.23373e-38
0.00266207 -0.0272528 -0.645644 2.03607e-38
0.0136266 -0.0137576 -0.636403 1.1496e-38
-0.0356197 -0.0709952 -0.647437 1.87865e-38
-0.0229272 -0.0535275 -0.706506 2.06326e-38
-0.00912963 -0.031071 -0.688497 1.50026e-38
-0.000184068 -0.0240757 -0.63065 2.01756e-38
0.0425491 0.017558 -0.615548 9.68387e-39
-0.015136 -0.0400244 -0.717866 5.16299e-39
-0.00942091 -0.0336882 -0.704418 1.58331e-38
0.0103723 -0.0153859 -0.634759 2.00759e-38
0.0229906 -0.0127348 -0.682564 1.0583e-38
0.01239 -0.0166417 -0.633418 2.03532e-38
0.0130673 0.00980752 -0.562292 1.03068e-38
0.011273 -0.0096231 -0.639457 1.40771e-38
-0.0250444 -0.0504732 -0.724183 6.09004e-39
0.0301618 -0.00431486 -0.713242 1.41822e-38
-0.0159885 -0.0423562 -0.709265 1.45413e-38
-0.0293607 -0.0625751 -0.686495 1.61061e-38
0.00491169 -0.0271337 -0.655778 7.08249e-39
-0.0150141 -0.0377733 -0.697314 2.10947e-38
0.0258374 -0.0108954 -0.707982 2.07278e-38
0.0108937 -0.0185138 -0.635829 2.03496e-38
0.03433 0.0111398 -0.61797 1.75798e-38
0.0280173 -0.00528763 -0.719414 2.94741e-39
0.00379584 -0.0259226 -0.636285 1.86029e-38
0.0190622 -0.0100185 -0.71881 9.4839e-39
-0.0322207 -0.0670515 -0.692192 1.37198e-38
0.0354369 0.00940897 -0.611574 1.81315e-38
0.0119999 -0.0204299 -0.634512 1.69355e-38
0.0119541 -0.0203478 -0.634618 1.69355e-38
0.0267273 -0.00525333 -0.711381 1.97082e-38
0.0140117 -0.0130681 -0.587894 1.93308e-38
-0.0394776 -0.0812369 -0.648463 1.32535e-38
-0.02858 -0.0592192 -0.705505 1.27911e-38
-0.00618564 -0.0286748 -0.692062 1.67569e-38
-0.013327 -0.0397855 -0.709386 2.0539e-38
-0.0187409 -0.0465339 -0.710365 1.85939e-38
0.0240332 -0.00684531 -0.721014 6.44327e-39
-0.00250878 -0.0278185 -0.670828 1.58338e-38
0.0382666 0.00942746 -0.612756 1.45392e-38
-0.0291544 -0.0622704 -0.702904 1.44506e-38
0.0130967 -0.0146799 -0.640723 2.04446e-38
-0.00319489 -0.0276996 -0.633843 1.54693e-38
-0.00257046 -0.0219038 -0.611086 1.71292e-38
0.0322196 -0.00433412 -0.717749 4.33433e-39
-0.0281801 -0.0643093 -0.69006 1.35225e-38
0.0100623 -0.0194913 -0.599658 8.09448e-39
-0.0316751 -0.069798 -0.669278 1.86966e-38
0.00802376 -0.020233 -0.605374 1.64831e-38
0.025424 -0.00714165 -0.717381 1.39946e-38
-0.0295292 -0.0616855 -0.70369 1.29733e-38
-0.0204555 -0.0481583 -0.696618 1.59256e-38
0.0288765 -0.0041689 -0.71652 1.46389e-38
0.00578274 -0.0245659 -0.638059 1.94395e-38
-0.0256449 -0.0592784 -0.697416 1.6293e-38
0.00215218 -0.0273219 -0.658903 1.48215e-38
-0.0237083 -0.0475243 -0.693947 9.49911e-39
-0.00478898 -0.0285316 -0.655934 1.53754e-38
0.00434134 -0.0261526 -0.656945 5.15214e-39
-0.0140076 -0.0290794 -0.595783 9.4062e-39
0.00108452 -0.0266527 -0.637801 1.51898e-38
-0.0349301 -0.075593 -0.651381 1.71242e-38
-0.000696177 -0.0261052 -0.639321 2.08181e-38
0.0247729 0.00278545 -0.598373 9.22254e-39
0.00499394 -0.02389 -0.630034 2.23869e-38
-0.035488 -0.0737102 -0.644377 1.12429e-38
-0.00921402 -0.033538 -0.691314 1.52781e-38
0.024667 -0.00700652 -0.679457 1.64781e-38
0.00827835 -0.0205721 -0.608184 1.84185e-38
0.00307819 -0.0108902 -0.570809 1.9984e-38
-0.0288775 -0.0622051 -0.706563 1.03065e-38
0.00170166 -0.0237882 -0.641176 1.6477e-38
-0.00505167 -0.0265895 -0.614646 1.12212e-38
-0.00186653 -0.0297276 -0.649768 1.65742e-38
-0.0120883 -0.0356679 -0.70681 1.68465e-38
-0.0317036 -0.069237 -0.676717 1.70323e-38
0.0119189 -0.0189844 -0.639186 2.12801e-38
0.00171271 -0.0246194 -0.633909 1.97132e-38
-0.0380884 -0.078667 -0.650205 1.75909e-38
-0.0294261 -0.0626418 -0.692666 2.0171e-38
-0.00337556 -0.0268875 -0.684047 1.41757e-38
0.00196549 -0.0300489 -0.659315 1.36251e-38
0.00903712 -0.0202513 -0.612419 1.38995e-38
-0.0277569 -0.0559516 -0.7182 9.12815e-39
0.0333152 0.0273692 -0.603732 9.31545e-39
0.0342833 0.0065515 -0.67143 1.0236e-38
-0.0335254 -0.0723316 -0.671094 1.56548e-38
-0.0315748 -0.0688227 -0.679535 1.52792e-38
-6.83257e-05 -0.0272415 -0.667843 1.22372e-38
0.00794489 -0.0209721 -0.602202 1.29718e-38
0.00129302 -0.0263409 -0.669329 1.02993e-38
0.0010873 -0.0242677 -0.631669 1.49133e-38
0.00911177 0.00567028 -0.589842 8.76226e-39
-0.000497219 -0.024881 -0.634798 1.95309e-38
-0.00283396 -0.0280123 -0.665379 1.47307e-38
0.00142438 -0.027868 -0.660269 1.33468e-38
-0.0102881 -0.0311213 -0.646817 1.10372e-38
0.00896369 -0.0191923 -0.620136 1.88784e-38
-0.041013 -0.0725488 -0.665473 9.77498e-39
-0.0196594 -0.0511406 -0.709758 1.37915e-38
0.00650731 -0.0214959 -0.622683 2.24762e-38
0.0354766 0.00626688 -0.6197 9.77571e-39
0.00733098 -0.0209143 -0.631208 1.55532e-38
-0.0328579 -0.0617059 -0.710989 1.02345e-38
0.0380338 0.0016062 -0.721689 1.0236e-38
-0.0268709 -0.0581836 -0.661085 9.4062e-39
0.0355183 0.00974018 -0.622825 9.96046e-39
-0.03761 -0.0735617 -0.666364 9.95865e-39
