# .PCD v.7 - Point Cloud Data file format
VERSION .7
FIELDS x y z rgb
SIZE 4 4 4 4
TYPE F F F F
COUNT 1 1 1 1
WIDTH 114
HEIGHT 1
VIEWPOINT 0 0 0 1 0 0 0
POINTS 114
DATA ascii
-0.00563895 -0.0158141 -0.568663 2.07273e-38
-0.024725 -0.0363748 -0.700492 1.30644e-38
-0.0117115 -0.0293552 -0.596871 1.5376e-38
-0.0169216 0.0273121 -0.636006 2.35066e-38
-0.0245565 -0.000298426 -0.713486 1.47206e-38
0.0101327 0.0227025 -0.548969 1.94302e-38
-0.00676387 -0.0170606 -0.573057 8.11758e-39
-0.0268528 0.00107328 -0.711414 1.62951e-38
0.0105829 0.0273005 -0.55363 1.93394e-38
0.0121006 0.0234605 -0.547295 2.19208e-38
-0.0122774 -0.0135802 -0.589877 1.60157e-38
-0.0221522 -0.038307 -0.697222 1.44408e-38
-0.0198635 -0.00723018 -0.643911 2.27535e-38
-0.0240898 -0.0405244 -0.702853 2.06294e-38
-0.0108045 -0.0252836 -0.592693 1.45391e-38
-0.0208488 -0.0291888 -0.691544 1.35232e-38
-0.020289 0.0253909 -0.635012 1.67512e-38
-0.0196437 -0.0264915 -0.680416 1.279e-38
-0.0261015 0.0146116 -0.714468 2.17361e-38
-0.0258495 0.00836151 -0.713084 2.19205e-38
-0.0238128 0.0122529 -0.714476 2.17347e-38
-0.0105924 -0.0328235 -0.620181 2.34947e-38
-0.0262714 -0.037112 -0.716169 1.93348e-38
-0.0270696 -0.00106069 -0.713735 1.92457e-38
-0.0248673 -0.0345577 -0.718301 5.71184e-39
-0.0250035 -0.0357615 -0.707819 1.8134e-38
-0.0244342 -0.033241 -0.714245 1.90582e-38
-0.0213636 -0.0103733 -0.642866 1.43494e-38
-0.0259395 0.00232867 -0.707324 1.94316e-38
-0.00158389 -0.00216388 -0.553366 2.28464e-38
-0.0263434 0.0106403 -0.711927 2.1923e-38
-0.0277793 0.00603941 -0.716542 1.81394e-38
-0.0201565 -0.0368825 -0.689362 2.01685e-38
-0.0252728 0.0100211 -0.712659 2.1923e-38
-0.0269893 0.0037402 -0.715028 1.41704e-38
-0.0144459 -0.0226479 -0.611609 1.10314e-38
-0.00991492 -0.0250188 -0.592157 2.35098e-38
-0.00463241 -0.00134056 -0.554285 2.34922e-38
-0.00779209 0.005968 -0.596131 1.67562e-38
-0.000652018 0.0136504 -0.550132 2.34011e-38
-0.0158954 -0.0335666 -0.640782 2.294e-38
-0.00792867 -0.0187261 -0.578617 1.36118e-38
-0.00136731 -0.00754062 -0.557599 8.11722e-39
-0.0224718 0.00544022 -0.6818 1.63849e-38
-0.0266846 0.00640386 -0.717216 1.75837e-38
-0.0115628 -0.00705692 -0.589332 2.34983e-38
-0.0120461 -0.0269577 -0.629108 5.90531e-39
-0.0134738 -0.0102018 -0.587406 2.22017e-38
-0.0268889 0.00738431 -0.719101 1.18724e-38
-0.0234112 -0.00173732 -0.725888 6.45776e-39
-0.0106222 -0.0303237 -0.61053 1.0236e-38
-0.0143475 -0.0280065 -0.607748 9.68388e-39
0.000429196 -0.00188953 -0.54677 8.29981e-39
-0.00442444 0.00457354 -0.564323 2.19173e-38
-0.0211477 -0.0442162 -0.698027 9.77534e-39
0.00166068 -0.00184216 -0.549076 7.37822e-39
-0.00719087 -0.0205377 -0.597891 2.1462e-38
-0.00976782 -0.0247139 -0.593122 1.09396e-38
-0.0220187 -0.0275381 -0.691091 1.95166e-38
-0.0233146 -0.0502014 -0.709925 1.97968e-38
-0.0265255 0.00441492 -0.698042 1.52785e-38
-0.00339636 0.00642013 -0.558932 1.59174e-38
-0.00946357 -0.00650917 -0.578677 2.3029e-38
-0.0170239 -0.00779771 -0.59795 2.08124e-38
-0.0196402 -0.00715428 -0.653821 2.04458e-38
-0.0251511 -0.000277269 -0.72699 7.47048e-39
-0.00570955 0.00436905 -0.57608 1.45413e-38
-0.0174228 -0.0075755 -0.598195 2.12752e-38
-0.0195256 -0.00765409 -0.63201 1.41714e-38
-0.0165282 -0.0222164 -0.648 1.6109e-38
-0.0108865 -0.0312932 -0.610057 1.0237e-38
-0.0036281 0.00655719 -0.5586 1.59174e-38
-0.0115809 -0.02499 -0.60193 1.06051e-38
-0.0221952 -0.043661 -0.695941 1.0236e-38
0.00112677 -0.000864748 -0.544668 8.2087e-39
-0.0208113 -0.0229163 -0.695749 2.21957e-38
-0.0146748 -0.0383461 -0.620753 9.31582e-39
-0.0125912 -0.00193528 -0.585562 1.96145e-38
-0.0126124 0.0169471 -0.625702 9.77608e-39
-0.0172728 -0.033823 -0.656733 8.20912e-39
-0.0248762 0.00707727 -0.705248 1.41765e-38
-0.0265116 0.0066535 -0.717534 1.66643e-38
-0.0133213 -0.0325864 -0.605501 1.01438e-38
9.82728e-05 -0.00358802 -0.549051 8.20834e-39
-0.0247909 0.00142753 -0.695203 2.13666e-38
-0.022465 -0.000319171 -0.647441 1.79543e-38
-0.0229307 0.00465525 -0.661917 1.59257e-38
-0.0223367 -0.012826 -0.657257 1.14078e-38
-0.0228925 0.00456031 -0.666171 1.78625e-38
-0.0122402 0.000298993 -0.589219 2.0624e-38
-0.0198243 -0.0363888 -0.695024 7.18883e-39
-0.0191874 -0.00699087 -0.627089 2.30287e-38
-0.0156328 -0.0367572 -0.616758 9.95938e-39
0.0118397 0.02876 -0.556545 8.57712e-39
0.0083334 0.0241252 -0.55678 8.20834e-39
-0.0152952 -0.0349869 -0.632134 9.77644e-39
-0.0183991 -0.0358622 -0.659528 1.02371e-38
-0.00167188 0.00860578 -0.558227 1.54557e-38
-0.0208446 0.0075034 -0.676171 1.52792e-38
-0.0114109 -0.027084 -0.59668 1.32437e-38
-0.0215076 -0.0424832 -0.687591 1.0236e-38
-0.0215413 -0.0271897 -0.698933 1.47239e-38
-0.0199159 -0.0174681 -0.658863 1.93376e-38
-0.0224038 0.00416077 -0.671611 1.83231e-38
-0.017209 -0.0377004 -0.659852 1.00527e-38
-0.00206876 -0.00847438 -0.555886 8.11758e-39
-0.00031535 -0.00532137 -0.548852 8.2087e-39
-0.0354815 0.0640011 -0.722023 1.12505e-38
-0.0185094 -0.042314 -0.642503 9.95975e-39
-0.00662862 0.0027959 -0.579503 1.4537e-38
-0.0247654 0.00305073 -0.725819 6.73544e-39
-0.0297538 -0.0349193 -0.722222 8.11511e-39
-0.0275017 -0.0363609 -0.724133 7.2868e-39
-0.0129584 0.0223396 -0.622501 9.77607e-39
