# .PCD v.7 - Point Cloud Data file format
VERSION .7
FIELDS x y z rgb
SIZE 4 4 4 4
TYPE F F F F
COUNT 1 1 1 1
WIDTH 115
HEIGHT 1
VIEWPOINT 0 0 0 1 0 0 0
POINTS 115
DATA ascii
0.0293091 0.00221516 -0.710397 2.15632e-38
0.0327633 0.0139737 -0.602376 2.35099e-38
0.0352019 0.000597654 -0.711754 2.35099e-38
0.0328712 0.0136437 -0.602225 2.35099e-38
-0.0240334 -0.0537597 -0.703561 2.21089e-38
-0.0306307 -0.0666576 -0.659697 1.32567e-38
0.00716382 -0.0251457 -0.643923 1.62891e-38
-0.0143273 -0.0328833 -0.689484 2.00834e-38
0.00977799 -0.0203997 -0.638239 1.65667e-38
0.0028507 -0.0275736 -0.64538 2.00845e-38
-0.0156127 -0.0326576 -0.682228 1.05837e-38
-0.00887332 -0.0314922 -0.688208 1.52817e-38
-0.0173198 -0.0407417 -0.702923 2.32217e-38
-0.0112581 -0.0303587 -0.6753 2.22039e-38
0.0326036 -0.00358613 -0.717302 5.81019e-39
-0.0220254 -0.0474158 -0.701875 1.4274e-38
-0.0185546 -0.0456669 -0.705308 2.12783e-38
0.0143476 -0.018166 -0.647364 1.94319e-38
0.00577264 -0.0274878 -0.651139 8.46111e-39
-0.0153484 -0.0358619 -0.695132 1.43591e-38
0.0310394 -0.00274883 -0.722206 6.18225e-39
-0.0133711 -0.0385669 -0.700589 2.27567e-38
-0.0166943 -0.0326296 -0.677086 1.84225e-38
-0.0166952 -0.0365155 -0.688863 2.14639e-38
-0.0051044 -0.0291122 -0.660812 1.10375e-38
-0.0234273 -0.0527467 -0.707004 2.10943e-38
-0.0324894 -0.0706346 -0.664261 1.15893e-38
-0.0115978 -0.0341386 -0.696336 1.3243e-38
-0.0368691 -0.0765619 -0.655807 1.4456e-38
-0.015398 -0.0433151 -0.708595 1.07595e-38
-0.00800926 -0.029258 -0.675828 1.55551e-38
-0.0241496 -0.0518667 -0.722989 6.82617e-39
-0.00794183 -0.0315794 -0.695596 1.49115e-38
0.0110551 -0.0165778 -0.634076 1.98929e-38
0.0287938 -0.00425291 -0.711862 2.2666e-38
0.009826 -0.0266823 -0.648128 2.34997e-38
-0.0394317 -0.081309 -0.648344 1.5007e-38
0.0254145 -0.00712248 -0.717182 1.73172e-38
-0.0180365 -0.0349751 -0.691607 1.64839e-38
-0.0399033 -0.0808944 -0.645781 1.75815e-38
-0.0204326 -0.0383333 -0.692667 1.0143e-38
-0.011884 -0.0341279 -0.69117 2.18323e-38
0.0233821 -0.00980329 -0.704228 1.67605e-38
0.0224376 -0.0121214 -0.70083 1.55626e-38
-0.0314005 -0.0682871 -0.691024 1.44563e-38
0.034433 0.0157495 -0.609589 2.14527e-38
-0.0908063 -0.0579558 -0.598004 8.85518e-39
-0.00543746 -0.0299173 -0.691257 1.45438e-38
0.00754817 -0.0265267 -0.656919 1.5747e-38
-0.0344421 -0.0763031 -0.65056 1.90639e-38
-0.0101796 -0.0322309 -0.692198 1.70327e-38
0.00271209 -0.0282735 -0.654919 1.29754e-38
-0.0343475 -0.0676827 -0.684528 1.6391e-38
0.0155064 -0.00700306 -0.708806 9.29731e-39
-0.0329287 -0.0674133 -0.693441 8.74059e-39
-0.00833437 -0.0291007 -0.673752 1.56477e-38
-0.0210443 -0.0510732 -0.708206 1.88737e-38
0.0222864 -0.0140007 -0.603563 1.83195e-38
-0.0331484 -0.0578803 -0.70918 1.04865e-38
-0.000684953 -0.027763 -0.650236 1.45441e-38
0.00409169 -0.0256716 -0.664383 7.54491e-39
0.0290337 -0.00445831 -0.716264 1.45459e-38
0.0207148 -0.00358359 -0.710112 9.10538e-39
-0.0362478 -0.0714677 -0.660565 1.95249e-38
-0.0360677 -0.0731145 -0.657178 1.50033e-38
0.0170413 -0.00673496 -0.724893 6.8251e-39
0.0122485 -0.00275771 -0.57049 5.71943e-39
-0.0365176 -0.0766021 -0.654148 1.49115e-38
0.017705 -0.0154063 -0.602076 1.31458e-38
0.0123539 -0.0197484 -0.638488 2.05422e-38
0.00332181 -0.027499 -0.660844 1.19642e-38
0.0299584 -0.012731 -0.72394 8.57718e-39
0.0239176 -0.00767853 -0.721779 5.44502e-39
-0.0308885 -0.0632082 -0.705085 1.06738e-38
-0.0325878 -0.0693929 -0.679465 1.95256e-38
0.0248062 -0.00125946 -0.5991 9.49912e-39
0.0274348 0.012349 -0.705238 9.95974e-39
0.00899722 -0.0186777 -0.625681 1.53645e-38
0.0311217 0.015199 -0.59961 9.03815e-39
-0.0185554 -0.0473686 -0.713918 1.83217e-38
-0.0330276 -0.058556 -0.710425 1.01207e-38
0.009639 -0.0212143 -0.629678 1.75848e-38
0.00399375 -0.027853 -0.657802 1.61119e-38
0.00714445 -0.021875 -0.628525 1.7404e-38
-0.0932351 -0.0573896 -0.596215 2.02939e-39
-0.0270583 -0.0607514 -0.703831 1.09446e-38
-0.0309397 -0.0564597 -0.718532 9.68241e-39
-0.0275632 -0.0613565 -0.665408 9.68387e-39
0.00697866 -0.0144993 -0.727236 9.68316e-39
-0.039172 -0.0782895 -0.656305 9.77461e-39
0.0282426 -0.0118749 -0.720487 7.65701e-39
0.0257809 -0.00173876 -0.711358 1.97089e-38
0.0203701 -0.0154883 -0.599626 1.81333e-38
0.00102224 -0.0269231 -0.66579 1.8232e-38
0.0279001 0.00387156 -0.603226 9.95865e-39
-0.00494739 -0.0281896 -0.68026 2.08153e-38
0.00979992 -0.0196662 -0.676199 7.08431e-39
-0.013504 -0.0680016 -0.720546 8.11692e-39
0.0253785 -0.0111787 -0.721006 7.56447e-39
0.0252685 -0.00983634 -0.721732 8.11692e-39
0.0367003 -0.0150762 -0.720913 9.22255e-39
0.0234179 -0.00968015 -0.684555 1.60161e-38
-0.0412394 -0.0797314 -0.655884 1.03271e-38
-0.0168667 -0.0330667 -0.66542 1.00523e-38
0.0207741 -0.0118915 -0.617668 9.77679e-39
-0.035051 -0.0634852 -0.703215 1.06015e-38
0.00362564 -0.0253335 -0.718851 8.76013e-39
0.021373 -0.0129704 -0.606951 1.60093e-38
0.0318623 0.0182825 -0.595455 8.85483e-39
0.0327027 0.135328 -0.723672 1.03292e-38
0.0225982 -0.0100238 -0.722035 7.01165e-39
0.0203648 0.00733423 -0.740772 8.85377e-39
-0.0155413 -0.0666991 -0.719987 8.48462e-39
0.0371992 -0.0115547 -0.721012 9.03816e-39
-0.104505 -0.0158701 -0.62545 8.76264e-39
