# .PCD v.7 - Point Cloud Data file format
VERSION .7
FIELDS x y z rgb
SIZE 4 4 4 4
TYPE F F F F
COUNT 1 1 1 1
WIDTH 98
HEIGHT 1
VIEWPOINT 0 0 0 1 0 0 0
POINTS 98
DATA ascii
0.030458 0.00684613 -0.709355 2.35099e-38
0.0336884 0.00117095 -0.713108 2.35098e-38
0.0338535 1.59198e-05 -0.712395 2.35098e-38
-0.00601029 -0.0273659 -0.645261 2.35083e-38
-0.0221804 -0.0470419 -0.70204 1.27989e-38
-0.0179802 -0.0342505 -0.679364 1.76795e-38
-0.00755768 -0.0287421 -0.659022 2.34986e-38
-0.0187491 -0.0444002 -0.706147 2.03538e-38
-0.0273564 -0.061786 -0.69738 1.86014e-38
-0.038045 -0.0750964 -0.643106 2.34993e-38
-0.00584271 -0.0293118 -0.689227 1.79603e-38
-0.0151856 -0.0376108 -0.703106 2.08191e-38
0.00282343 -0.0275015 -0.645465 2.11915e-38
-0.00873751 -0.031851 -0.688038 1.36204e-38
-0.00521016 -0.0283141 -0.647603 1.7955e-38
0.0326707 -0.00325752 -0.716247 1.16076e-38
0.0140506 -0.0173595 -0.648671 2.24798e-38
0.000233342 -0.0232178 -0.630518 2.02699e-38
-0.00941204 -0.0337354 -0.704656 1.43566e-38
-0.0193483 -0.0374948 -0.689776 1.71238e-38
0.00356343 -0.0227238 -0.615532 1.60268e-38
-0.00545661 -0.0281754 -0.661462 1.20527e-38
-0.01039 -0.0313906 -0.686309 1.95252e-38
-0.00975781 -0.0302941 -0.659566 1.48171e-38
-0.0358826 -0.0705762 -0.64772 1.8878e-38
0.0239564 -0.00838211 -0.716239 1.90661e-38
0.0113613 -0.02114 -0.641244 2.1188e-38
0.0102592 -0.0200373 -0.594726 1.31623e-38
-0.00362971 -0.025826 -0.6265 1.64806e-38
0.0232728 -0.00794787 -0.716671 1.47318e-38
-0.0152792 -0.0415698 -0.708038 2.15521e-38
0.00835888 -0.0200088 -0.598538 1.80432e-38
-0.0372004 -0.0775461 -0.644422 2.17364e-38
0.0127939 -0.00382884 -0.690945 1.50134e-38
-0.025236 -0.0492121 -0.725116 5.99713e-39
-0.00315357 -0.0237335 -0.611172 2.18315e-38
-0.00359592 -0.0271694 -0.634363 1.86944e-38
-0.0983533 -0.0428331 -0.598115 9.68314e-39
-0.00945075 -0.0345865 -0.693977 1.98954e-38
-0.00741768 -0.0312175 -0.661312 1.70327e-38
-0.0081657 -0.0285124 -0.644282 1.62952e-38
0.00426395 -0.0269647 -0.645523 1.97164e-38
-0.0394433 -0.0803769 -0.649373 1.25145e-38
0.00262422 -0.0280343 -0.655078 1.28832e-38
0.0036261 -0.0213664 -0.60268 1.5282e-38
-0.0218682 -0.0526922 -0.716748 5.24761e-39
0.0245552 -0.00842011 -0.710046 1.01231e-38
0.0146827 -0.00497636 -0.722692 4.79279e-39
-0.00634651 -0.0296917 -0.666188 1.58353e-38
0.00374892 -0.0270047 -0.654833 2.00773e-38
-0.00680075 -0.0295718 -0.679095 1.6016e-38
0.00352646 -0.0265576 -0.639146 2.07281e-38
-0.000637419 -0.0278908 -0.650159 1.49082e-38
0.0293173 -0.00531284 -0.715626 9.84293e-39
0.00376555 -0.0269955 -0.642637 1.57391e-38
-0.0222666 -0.0360682 -0.695341 9.68314e-39
-0.0229117 -0.0371123 -0.693173 9.86681e-39
-0.0390272 -0.0763339 -0.638231 1.03278e-38
-0.00980846 -0.0264239 -0.618658 2.28479e-38
0.0125626 -0.0176092 -0.589383 1.93312e-38
0.020829 -0.00847945 -0.721951 4.33687e-39
0.00908045 -0.0261925 -0.656298 2.23869e-38
0.00421283 -0.0284646 -0.657492 1.62981e-38
-0.00938443 -0.0298077 -0.709837 7.92927e-39
0.0011407 -0.0248187 -0.625409 1.81397e-38
-0.0296471 -0.0627917 -0.68853 1.54625e-38
-0.0166683 -0.0457704 -0.710228 1.9056e-38
-0.0125922 -0.03223 -0.693023 2.32202e-38
-0.0308774 -0.0632388 -0.704984 9.93554e-39
-0.101821 -0.0402688 -0.596941 2.02867e-39
0.0197908 -0.0158414 -0.594539 1.94201e-38
0.0281627 -0.0116334 -0.720485 7.47298e-39
0.0247996 -0.00850405 -0.704457 1.76806e-38
-0.0319851 -0.0601089 -0.709232 1.03097e-38
-0.0336441 -0.0707416 -0.670589 1.19595e-38
0.00124691 -0.0226367 -0.615211 2.06405e-38
-0.000152451 -0.0241549 -0.618473 1.95256e-38
-0.00335596 -0.0273631 -0.664106 1.30644e-38
-0.00149854 -0.026543 -0.64449 1.71284e-38
0.00744309 -0.0204903 -0.614629 1.1958e-38
0.00881939 -0.0213997 -0.722405 9.77571e-39
0.0258807 -0.00496359 -0.672884 1.06962e-38
-0.0514842 -0.0461667 -0.720959 1.01434e-38
-0.0509586 -0.0483579 -0.71945 1.02349e-38
-0.00339078 -0.0747182 -0.722736 1.01431e-38
-0.0268507 -0.0390287 -0.696212 9.40549e-39
0.022164 -0.00874453 -0.722911 7.47155e-39
-0.0226832 -0.0319962 -0.686826 9.95938e-39
-0.0181603 -0.0659886 -0.720253 8.11692e-39
-0.0184271 -0.0646957 -0.721269 8.11692e-39
-0.0757347 -0.0662787 -0.58264 9.03886e-39
-0.0299757 -0.0547181 -0.725712 7.28788e-39
0.0397088 0.00305939 -0.722418 1.02371e-38
-0.0151335 -0.0677049 -0.718986 8.11691e-39
0.0395981 -0.00488209 -0.717312 9.86756e-39
-0.0313991 -0.0651635 -0.69771 1.06688e-38
0.00491816 -0.0776126 -0.715659 9.13036e-39
0.00352145 -0.0700151 -0.721599 9.77536e-39
