# .PCD v.7 - Point Cloud Data file format
VERSION .7
FIELDS x y z rgb
SIZE 4 4 4 4
TYPE F F F F
COUNT 1 1 1 1
WIDTH 72
HEIGHT 1
VIEWPOINT 0 0 0 1 0 0 0
POINTS 72
DATA ascii
-0.0117928 -0.0328227 -0.67943 1.88787e-38
-0.0184779 -0.0426999 -0.707354 2.19284e-38
-0.0134515 -0.0341378 -0.688377 2.22032e-38
-0.0134211 -0.036477 -0.686792 2.17415e-38
-0.0166813 -0.0359239 -0.693711 1.80558e-38
-0.00876297 -0.0317157 -0.688276 1.3803e-38
0.000546547 -0.0249763 -0.629464 2.10057e-38
-0.0103567 -0.0315611 -0.686219 1.93419e-38
-0.00966616 -0.0307695 -0.659514 1.42643e-38
0.0131711 -0.0143212 -0.641189 2.02631e-38
-0.0119989 -0.0341911 -0.697472 1.81404e-38
0.00367842 -0.0232841 -0.621156 1.62948e-38
0.00282303 -0.0275165 -0.645605 2.24827e-38
-0.00861532 -0.0289555 -0.638733 1.39942e-38
0.0326069 -0.00283351 -0.716469 1.10585e-38
0.00725011 -0.0217152 -0.643276 1.93362e-38
-0.00951975 -0.0311455 -0.686851 2.08156e-38
0.0043165 -0.0272481 -0.645255 2.03621e-38
-0.0118459 -0.0345223 -0.690749 1.9805e-38
-0.00115181 -0.0267266 -0.640747 2.21996e-38
0.0234595 -0.00509929 -0.718628 1.5008e-38
0.0233973 -0.00875235 -0.715909 9.7493e-39
-0.00445493 -0.0289629 -0.663527 1.81426e-38
-0.10544 -0.0186535 -0.602112 9.22361e-39
-0.0381295 -0.0733922 -0.655548 2.11862e-38
0.00739105 -0.0259554 -0.657386 1.44545e-38
0.0294115 -0.00516643 -0.719567 4.7982e-39
0.00242807 -0.027299 -0.658313 1.67565e-38
0.0037908 -0.0272499 -0.655059 1.84157e-38
-0.0316384 -0.0674993 -0.691996 1.12266e-38
0.00486248 -0.0240226 -0.636635 1.8973e-38
0.0199669 -0.0116337 -0.703244 1.31681e-38
-0.00850036 -0.0329849 -0.706981 1.43718e-38
0.00412461 -0.026478 -0.642964 1.84181e-38
-0.00130962 -0.0728171 -0.721837 1.24519e-38
-0.000704665 -0.027516 -0.650426 1.50951e-38
0.0011855 -0.0273074 -0.644322 1.65674e-38
0.0293774 -0.00504564 -0.714844 2.26663e-38
-0.0368977 -0.0682599 -0.672321 1.34418e-38
-0.00474968 -0.0285885 -0.655741 1.38952e-38
0.00583072 -0.025153 -0.655355 2.22054e-38
-0.00737821 -0.0318511 -0.680437 1.61979e-38
-0.0355156 -0.059797 -0.699589 1.12273e-38
-0.00563915 -0.0290203 -0.675328 1.48143e-38
0.015227 -0.0184482 -0.601088 2.00709e-38
0.0160115 -0.00450989 -0.590528 9.68315e-39
-0.00102624 -0.0253619 -0.634569 2.34961e-38
0.0324907 -0.0119876 -0.721209 8.85376e-39
0.0132084 -0.0194601 -0.597876 1.56423e-38
-0.00419618 -0.0284254 -0.654305 2.24784e-38
-0.031328 -0.056153 -0.717252 9.03705e-39
-0.00871756 -0.0278715 -0.65638 1.62937e-38
-0.00617425 -0.0298365 -0.676399 1.88756e-38
0.00417645 -0.0246509 -0.71993 8.85339e-39
-0.0137397 -0.0686849 -0.720347 9.31402e-39
0.0302652 -0.0103723 -0.719539 7.19568e-39
0.0265165 -0.0112533 -0.719268 6.36557e-39
0.0267508 -0.00883408 -0.676314 1.06048e-38
0.0172351 -0.0124593 -0.613259 7.82331e-39
0.032616 0.0170284 -0.59803 9.03814e-39
0.0160366 -0.00284497 -0.59134 8.763e-39
-0.0375138 -0.0587086 -0.71959 9.86718e-39
-0.00906091 -0.0679415 -0.72312 9.68317e-39
0.0375987 -0.0143879 -0.719618 9.68353e-39
0.0334078 -0.0116201 -0.722123 9.40837e-39
-0.039617 -0.0603766 -0.723213 1.06048e-38
0.0567598 0.0203768 -0.597869 8.02539e-39
-0.0128059 -0.0679664 -0.726289 9.40586e-39
-0.0463422 -0.0810261 -0.642373 9.96009e-39
0.034297 -0.00703989 -0.722385 8.76193e-39
0.0196714 -0.0148361 -0.577175 8.30054e-39
0.01678 -0.0187903 -0.605797 1.4452e-38
