# .PCD v.7 - Point Cloud Data file format
VERSION .7
FIELDS x y z rgb
SIZE 4 4 4 4
TYPE F F F F
COUNT 1 1 1 1
WIDTH 59
HEIGHT 1
VIEWPOINT 0 0 0 1 0 0 0
POINTS 59
DATA ascii
-0.0180103 -0.0349688 -0.679109 2.06329e-38
-0.00563236 -0.0274073 -0.645432 2.32195e-38
-0.00110456 -0.0199639 -0.58932 2.34099e-38
-0.00803465 -0.0273844 -0.624338 9.02002e-39
-0.00457762 -0.0270057 -0.631227 2.28521e-38
-0.00876443 -0.0316266 -0.688481 1.50966e-38
-0.00146064 -0.0202728 -0.595513 2.28535e-38
-0.0134316 -0.0355281 -0.687275 2.16475e-38
0.0152146 -0.00328117 -0.57825 8.48456e-39
0.00723401 -0.0222944 -0.643394 1.97113e-38
0.0184146 -0.0085314 -0.572148 8.11686e-39
0.0111018 -0.0136731 -0.584978 2.35004e-38
-0.00570937 -0.0239884 -0.611462 1.31598e-38
-0.0096682 -0.0309212 -0.659699 1.44476e-38
-0.000201359 -0.0178427 -0.586777 2.35098e-38
0.00483048 -0.0196316 -0.595465 1.98082e-38
0.0233579 -0.00922015 -0.715551 9.01103e-39
-0.00982749 -0.033478 -0.696382 1.72168e-38
0.00396171 -0.0209954 -0.602735 1.64823e-38
0.00797703 -0.0184131 -0.590772 2.35076e-38
-2.31601e-05 -0.0218205 -0.602822 2.06391e-38
0.0164744 -0.00983271 -0.713448 8.83993e-39
-0.0356333 -0.0712894 -0.673829 9.75185e-39
0.00511096 -0.0216231 -0.61276 1.60164e-38
0.0160572 0.00107489 -0.565131 8.1165e-39
0.0169784 -0.0100954 -0.71819 1.0314e-38
0.0284494 -0.00650874 -0.719863 5.99532e-39
-0.00603291 -0.026878 -0.699645 1.57409e-38
-0.00299448 -0.0266506 -0.642077 2.00794e-38
-0.000632621 -0.0251334 -0.693778 8.85302e-39
0.0303598 -0.00753381 -0.721526 7.65594e-39
0.0259701 -0.00732282 -0.685387 1.02363e-38
-0.00259286 -0.0279786 -0.666295 1.86019e-38
0.0222959 -0.00981389 -0.724799 8.20838e-39
0.0309544 -0.0152113 -0.725017 1.01441e-38
-0.105461 -0.00508023 -0.583249 7.93212e-39
0.0224473 -0.00872969 -0.726473 7.65558e-39
0.0443953 0.000578357 -0.710308 9.68424e-39
0.0325112 -0.0115564 -0.72186 9.77572e-39
0.00460131 -0.022103 -0.607192 2.07259e-38
-0.00856244 -0.0240949 -0.622345 1.56505e-38
0.0556932 0.00236617 -0.591434 8.48528e-39
0.0454589 0.032508 -0.605955 8.30198e-39
0.0334036 -0.011551 -0.72236 9.13143e-39
0.0181379 -0.00345835 -0.588836 9.59059e-39
-0.0148158 -0.0700661 -0.717755 9.40621e-39
0.0206854 -0.0131188 -0.721093 7.56374e-39
0.0208235 -0.00846113 -0.726688 7.65665e-39
-0.00617226 -0.0738609 -0.723423 9.59133e-39
-0.0474679 -0.082733 -0.640159 1.01441e-38
-0.00609467 -0.0734155 -0.723629 9.77464e-39
-0.00579008 -0.0717879 -0.725033 9.775e-39
0.0511708 0.0173281 -0.600414 8.11687e-39
-0.00782144 -0.0715938 -0.723997 9.31511e-39
-0.0951028 -0.00394415 -0.589302 7.10379e-39
-0.0934476 0.0290203 -0.619929 9.1307e-39
-0.00339136 -0.0721458 -0.716726 9.58918e-39
-0.0198633 -0.00858451 -0.581747 7.93355e-39
-0.101396 -0.000307691 -0.587362 7.65697e-39
