# .PCD v.7 - Point Cloud Data file format
VERSION .7
FIELDS x y z rgb
SIZE 4 4 4 4
TYPE F F F F
COUNT 1 1 1 1
WIDTH 54
HEIGHT 1
VIEWPOINT 0 0 0 1 0 0 0
POINTS 54
DATA ascii
-0.0165845 -0.033603 -0.687222 2.35076e-38
-0.0178775 -0.0054421 -0.595181 1.47271e-38
-0.0167961 -0.0249834 -0.658437 1.57462e-38
-0.0163274 -0.0171552 -0.613487 1.56523e-38
-0.0186699 -0.0158683 -0.636763 1.58341e-38
-0.0161012 -0.00803213 -0.589515 2.35001e-38
-0.015589 -0.026318 -0.670086 1.92515e-38
-0.0184345 -0.00627038 -0.598461 1.40836e-38
-0.0249322 -0.00416916 -0.712703 1.47289e-38
-0.0148957 -0.0258184 -0.638746 1.23362e-38
-0.0185478 -0.00305907 -0.599044 1.777e-38
-0.0698837 0.0814021 -0.601632 9.408e-39
-0.0250172 0.000386828 -0.694708 2.1923e-38
-0.0245867 -0.00152663 -0.708401 1.14949e-38
-0.0221294 -0.000657008 -0.685086 8.82881e-39
-0.0264449 0.000780349 -0.703856 1.14088e-38
-0.0195983 -0.0151776 -0.63906 2.35029e-38
-0.0231995 -0.00408596 -0.70915 1.34421e-38
-0.0164623 -0.00950354 -0.602445 1.54665e-38
-0.0178927 -0.011283 -0.62182 1.72164e-38
-0.0130619 -0.0271664 -0.646753 1.58345e-38
-0.0225399 0.000107349 -0.68901 1.75881e-38
-0.0173654 -0.0172223 -0.607999 1.71303e-38
-0.0214838 -0.013679 -0.650155 1.87841e-38
-0.0162113 -0.00856264 -0.599826 2.20163e-38
-0.0153992 -0.0246162 -0.646443 1.73154e-38
-0.0153862 -0.0126399 -0.598524 1.62051e-38
-0.0236581 0.00428411 -0.619995 6.34784e-39
-0.00459954 0.00540135 -0.552136 2.04486e-38
-0.0193971 -0.034657 -0.690417 1.5003e-38
-0.0173009 -0.00847138 -0.603143 1.50026e-38
-0.0734913 0.0810878 -0.596363 2.02867e-39
-0.0194855 -0.0178825 -0.646597 1.73082e-38
-0.0201214 -0.017866 -0.652071 2.13692e-38
-0.02043 -0.0173067 -0.654976 1.99833e-38
-0.0230526 -0.00955996 -0.664168 1.2701e-38
-0.0180577 -0.017673 -0.666993 1.14049e-38
-0.0186785 2.41691e-05 -0.588768 1.86873e-38
-0.0197428 -0.0182594 -0.652066 1.92479e-38
0.00728666 0.0107092 -0.541882 2.09092e-38
-0.0700704 0.0798355 -0.549424 7.38038e-39
0.00689476 0.00993655 -0.545054 2.31237e-38
-0.0199711 -0.0220311 -0.661603 1.73104e-38
-0.0267246 0.021897 -0.725155 1.01441e-38
-0.0337003 0.0403026 -0.616721 1.00519e-38
-0.0196175 -0.0160319 -0.661113 1.39921e-38
-0.00474109 -0.0739488 -0.723399 1.0881e-38
-0.0659756 0.0796734 -0.596205 7.19563e-39
-0.0137982 0.0191555 -0.647156 1.06058e-38
-0.0367646 0.0472728 -0.583661 7.10379e-39
0.00891511 0.00934379 -0.54478 2.26616e-38
-0.030351 -0.0176209 -0.653565 1.25188e-38
-0.0172195 0.0260859 -0.649222 1.02371e-38
-0.0554041 0.0602648 -0.601884 9.96154e-39
