# .PCD v.7 - Point Cloud Data file format
VERSION .7
FIELDS x y z rgb
SIZE 4 4 4 4
TYPE F F F F
COUNT 1 1 1 1
WIDTH 73
HEIGHT 1
VIEWPOINT 0 0 0 1 0 0 0
POINTS 73
DATA ascii
-0.0192034 -0.0299821 -0.688263 2.14613e-38
-0.0191464 -0.0242199 -0.678306 1.38981e-38
-0.0167576 -0.017402 -0.613082 1.62051e-38
-0.0157964 -0.0239316 -0.658149 1.98029e-38
-0.0248669 0.0129179 -0.713341 2.03521e-38
-0.0213303 -0.0114613 -0.639535 1.7677e-38
-0.0218239 -0.0128343 -0.640193 1.88741e-38
-0.0182718 -0.0156386 -0.637023 2.14603e-38
-0.0227648 -0.0107666 -0.647241 1.76835e-38
-0.0187371 -0.0273139 -0.686138 1.5742e-38
-0.0226687 -0.0107275 -0.647175 1.76835e-38
0.000737244 -0.0170063 -0.573536 8.39273e-39
-0.0230205 0.00292351 -0.688162 1.69398e-38
-0.0174312 -0.00666195 -0.600723 1.95234e-38
-0.00234589 0.00711447 -0.585949 7.74843e-39
-0.0260114 -0.00280769 -0.714454 1.46356e-38
-0.0176117 -0.00630247 -0.598632 1.64799e-38
-0.0153883 -0.00496685 -0.587816 1.98021e-38
-0.0224048 -0.00127998 -0.689834 1.4726e-38
-0.0206545 -0.0267826 -0.683142 1.45442e-38
-0.0249733 -0.000386251 -0.705379 1.62977e-38
-0.0178823 -0.0112782 -0.62163 1.6571e-38
-0.0258443 -0.00226905 -0.707643 1.3154e-38
-0.0211756 -0.026491 -0.705501 1.32538e-38
-0.0227334 -0.000707578 -0.688591 1.98918e-38
-0.0203803 -0.0161888 -0.647692 1.38884e-38
-0.0189552 -0.0194274 -0.680341 1.40803e-38
-0.0238942 -0.00351019 -0.708624 1.63906e-38
-0.0226121 -0.0270028 -0.704652 1.37137e-38
-0.0194028 -0.00199398 -0.592784 1.93297e-38
-0.0228934 -0.0112123 -0.655745 1.2602e-38
-0.0202813 -0.0153964 -0.646243 1.60157e-38
-0.02589 0.00986271 -0.713519 1.98029e-38
-0.0192786 -0.0174319 -0.664159 1.39881e-38
-0.0193485 -0.0146124 -0.635518 1.81426e-38
-0.0195526 -0.00530292 -0.600924 2.30381e-39
-0.0282759 0.00691489 -0.715498 1.37159e-38
-0.021842 -0.029351 -0.703765 1.64846e-38
-0.024718 0.00124629 -0.693852 1.5649e-38
-0.019065 -0.0084263 -0.622477 1.44509e-38
-0.0166848 -0.00883838 -0.599297 2.20156e-38
-0.0241879 -0.00802001 -0.651964 1.88784e-38
-0.0176938 -0.0137583 -0.618754 1.73075e-38
-0.0206594 -0.0132072 -0.650389 2.09053e-38
-0.0160328 -0.014317 -0.619138 1.65685e-38
-0.0172511 -0.00844064 -0.603038 1.48142e-38
-0.0249614 0.00149104 -0.699899 1.27925e-38
-0.0113003 -0.0196616 -0.633895 1.93404e-38
-0.0251097 0.00205619 -0.699277 1.21453e-38
-0.0196119 -0.018498 -0.665726 1.52785e-38
-0.0216112 -0.0164339 -0.642867 1.52734e-38
-0.0233615 -2.53771e-05 -0.648205 1.35286e-38
-0.020198 -0.0168539 -0.654012 1.0757e-38
-0.017474 -0.00902853 -0.606654 1.41707e-38
-0.0230608 0.00183443 -0.681458 1.34349e-38
-0.0181848 -0.00220709 -0.588709 1.79486e-38
-0.0205087 0.00203243 -0.663255 9.01284e-39
-0.0235693 -0.023903 -0.656182 1.42633e-38
-0.0164197 0.0174974 -0.642702 1.05129e-38
-0.0270074 0.00514711 -0.714861 1.36237e-38
-0.0227626 0.0261665 -0.728733 1.04211e-38
-0.0269621 0.0255632 -0.733204 1.04207e-38
-0.0305031 0.024095 -0.730875 1.21725e-38
-0.0169276 -0.0292528 -0.652731 1.62988e-38
0.00794119 -0.00439067 -0.557096 8.11578e-39
-0.0253457 0.0221963 -0.70756 9.4062e-39
0.00871683 -0.0041143 -0.557787 8.2087e-39
0.000894595 -0.0707071 -0.721221 1.10657e-38
-0.0215983 0.0102116 -0.662654 1.03282e-38
-0.0386301 0.0263517 -0.608764 1.03285e-38
-0.0125375 0.0057982 -0.58651 9.40764e-39
-0.0302038 0.0052931 -0.720289 7.10385e-39
-0.0259297 0.0483591 -0.588416 7.47041e-39
