# .PCD v.7 - Point Cloud Data file format
VERSION .7
FIELDS x y z rgb
SIZE 4 4 4 4
TYPE F F F F
COUNT 1 1 1 1
WIDTH 74
HEIGHT 1
VIEWPOINT 0 0 0 1 0 0 0
POINTS 74
DATA ascii
-0.0129642 -0.0133114 -0.58992 1.53725e-38
-0.014268 -0.0155578 -0.602164 9.93082e-39
-0.0198057 -0.0301897 -0.687791 2.10003e-38
-0.014269 -0.018637 -0.618435 2.05433e-38
-0.0102741 -0.0100788 -0.583626 2.29432e-38
-0.0219358 -0.00762438 -0.641774 2.11826e-38
-0.0170028 -0.018951 -0.624259 1.66661e-38
-0.0161835 -0.0188163 -0.624879 1.42662e-38
-0.0176353 -0.00519755 -0.595101 1.40811e-38
-0.012018 -0.00784826 -0.585047 2.14627e-38
-0.0183149 -0.0210165 -0.638386 1.28811e-38
-0.0185237 -0.0272396 -0.686284 1.58328e-38
-0.0198552 -0.00738752 -0.636595 1.28796e-38
-0.0177291 -0.0230357 -0.660012 1.47257e-38
-0.0248977 0.00904267 -0.712572 1.84196e-38
-0.0228761 -0.000760603 -0.688326 1.95223e-38
-0.0169607 -0.0064911 -0.600811 2.29354e-38
-0.0367768 -0.0694641 -0.676531 1.97039e-38
-0.0182972 -0.0054789 -0.602982 1.47322e-38
-0.0209206 -0.00179683 -0.690212 1.84171e-38
-0.0236619 0.00588851 -0.687057 1.95227e-38
-0.0172477 -0.00601468 -0.596912 1.60175e-38
-0.0186212 -0.0175632 -0.643021 2.01709e-38
-0.0178667 -0.00639549 -0.5983 1.66636e-38
-0.0315297 -0.051549 -0.704898 1.53761e-38
-0.0204903 -0.0153549 -0.638477 2.35084e-38
-0.0156898 -0.00508634 -0.587307 2.00791e-38
-0.0203067 -0.00128139 -0.601511 2.00691e-38
-0.0191772 -0.00323365 -0.596532 1.73933e-38
-0.0192263 -0.0195272 -0.680081 1.42665e-38
-0.0174517 -0.00683392 -0.60441 1.19602e-38
-0.0184702 -0.0124668 -0.633787 2.05354e-38
-0.0130151 -0.032458 -0.617626 1.8882e-38
-0.0205818 -0.00733694 -0.639315 1.68509e-38
-0.0213009 -0.0325115 -0.691023 1.94334e-38
-0.0259658 0.00299814 -0.698629 1.0762e-38
-0.0207765 -0.0351592 -0.689058 1.33453e-38
-0.0206587 -0.00274038 -0.725288 5.5376e-39
-0.0181199 -0.00718303 -0.617549 1.62919e-38
-0.0189764 -0.0195131 -0.64885 1.48121e-38
-0.0173019 -0.0123565 -0.619235 1.31526e-38
-0.0163169 -0.0214326 -0.632121 2.10939e-38
-0.0217592 0.0126749 -0.721355 1.31631e-38
-0.0334004 -0.0537255 -0.700079 1.48226e-38
-0.025169 -0.00394823 -0.657925 1.31588e-38
-0.016868 -0.00829999 -0.603197 1.7122e-38
-0.0181232 -0.0209961 -0.675593 2.05344e-38
-0.0245449 -0.00665551 -0.655988 1.82327e-38
-0.0163584 -0.0112117 -0.606122 1.38855e-38
-0.041271 0.101384 -0.59708 2.12122e-39
-0.0238609 -0.000421069 -0.649254 1.73097e-38
-0.0227553 0.00194987 -0.681676 1.27845e-38
-0.0232958 0.00336673 -0.682946 1.46349e-38
-0.025849 0.00620713 -0.614693 1.64775e-38
-0.0248281 0.00325942 -0.693676 1.35286e-38
-0.0213764 0.00372945 -0.68449 1.7865e-38
-0.0259992 0.0141036 -0.631616 1.05122e-38
-0.020281 -0.0162908 -0.656194 1.10332e-38
-0.0205549 -0.0173229 -0.653656 9.74429e-39
-0.0203794 -0.0156686 -0.663374 1.05766e-38
-0.0295273 0.0108338 -0.693497 9.49912e-39
-0.0393411 0.0986823 -0.549095 7.56442e-39
-0.0230169 0.0041789 -0.681088 1.62955e-38
-0.0356448 -0.0717919 -0.665174 1.14103e-38
-0.0339539 -0.0564702 -0.702453 1.81409e-38
-0.0209049 0.026213 -0.729277 1.04218e-38
-0.0259152 0.0216139 -0.699697 9.68314e-39
-0.0250769 0.00880479 -0.698546 9.3086e-39
-0.0240642 0.0211356 -0.722383 9.86827e-39
-0.0412677 0.102986 -0.532369 1.66024e-39
-0.0295699 0.0756354 -0.606677 1.01434e-38
-0.0413765 0.0948009 -0.593405 7.65624e-39
-0.0172676 -0.0217717 -0.712796 7.65556e-39
-0.040615 0.0962742 -0.594947 7.47078e-39
