# .PCD v.7 - Point Cloud Data file format
VERSION .7
FIELDS x y z rgb
SIZE 4 4 4 4
TYPE F F F F
COUNT 1 1 1 1
WIDTH 118
HEIGHT 1
VIEWPOINT 0 0 0 1 0 0 0
POINTS 118
DATA ascii
-0.0141408 0.0283137 -0.633594 1.94432e-38
-0.0115479 0.0243893 -0.629132 2.35099e-38
-0.0166042 0.0276284 -0.637364 2.3507e-38
0.00519209 0.017531 -0.557373 4.60114e-39
-0.017898 0.0263856 -0.644562 2.28584e-38
-0.0302794 -0.0480732 -0.700973 1.26042e-38
-0.0221045 -0.038335 -0.697255 1.58277e-38
-0.0259596 0.0145289 -0.714546 2.20116e-38
-0.0221305 -0.000388923 -0.68913 2.09042e-38
0.0104141 0.0211899 -0.545641 2.09049e-38
0.0125923 0.0231896 -0.547471 2.23829e-38
-0.0192224 -0.0267522 -0.68074 1.22383e-38
-0.0234147 0.00651633 -0.686783 2.2102e-38
-0.0198746 -0.0242742 -0.677514 1.62952e-38
-0.0264179 0.0137509 -0.712209 1.97942e-38
-0.00967558 -0.0251653 -0.592417 2.3043e-38
0.00916233 0.00976497 -0.539195 2.27542e-38
-0.0151056 -0.0341847 -0.619711 7.26508e-39
-0.00719313 -0.0197051 -0.572906 8.02395e-39
-0.0112633 0.0269867 -0.631755 9.49949e-39
-0.0243506 -0.0332935 -0.714267 1.7305e-38
-0.019192 -0.0232051 -0.672012 1.89624e-38
-0.0263603 0.00337009 -0.715546 1.45406e-38
-0.0265534 0.00877257 -0.712446 2.16432e-38
-0.0216793 0.00681909 -0.679415 1.79511e-38
-0.024652 0.00887245 -0.712973 2.01688e-38
-0.0311223 -0.0519093 -0.695967 1.57435e-38
0.0130358 0.0261761 -0.55131 2.07194e-38
-0.0102688 -0.0238549 -0.605128 1.00523e-38
-0.0349864 -0.0645845 -0.658386 1.55551e-38
-0.0278314 -0.04124 -0.708669 2.17322e-38
-0.0374553 -0.0696841 -0.648988 1.75837e-38
-0.0296975 -0.0492424 -0.698173 1.78607e-38
-0.00683537 -0.0141811 -0.578628 2.34911e-38
-0.017566 -0.0321234 -0.661327 1.79543e-38
0.0121239 0.0201875 -0.54145 8.85227e-39
-0.0257411 -0.0402051 -0.71464 1.81398e-38
0.011604 0.0212853 -0.540472 8.85334e-39
-0.00615148 -0.00837979 -0.579759 2.09067e-38
-0.0250284 0.00676396 -0.70828 1.50023e-38
-0.00202777 -0.00705497 -0.563528 1.80407e-38
-0.0298241 -0.0420222 -0.718036 9.38634e-39
-0.0238529 0.00574546 -0.709573 1.29715e-38
-0.0371149 -0.0714925 -0.64399 1.01423e-38
-0.0314477 -0.0508951 -0.699339 1.85053e-38
-0.0361753 -0.0612046 -0.676468 1.65657e-38
-0.00806519 -0.017797 -0.588432 4.33397e-39
-0.0296493 -0.042125 -0.718376 9.38634e-39
-0.0272982 0.00676148 -0.716564 1.74001e-38
-0.0219282 0.00615994 -0.681588 1.61065e-38
-0.0199575 0.0100542 -0.689859 1.63842e-38
-0.0165699 -0.0305441 -0.661808 1.31609e-38
0.006474 0.0182967 -0.568727 9.76016e-39
-0.0227033 0.00854765 -0.709491 1.19588e-38
-0.0376996 -0.0617837 -0.692957 1.73061e-38
-0.0326561 -0.0472464 -0.719935 6.08895e-39
-0.00814671 -0.0177288 -0.588469 2.85957e-39
-0.0182543 0.0212034 -0.631462 2.10825e-38
-0.00708678 -0.0171949 -0.578686 1.73053e-38
-0.0346777 -0.0591151 -0.684391 2.0534e-38
0.00838162 0.0256254 -0.554919 1.41859e-38
-0.026366 -0.034503 -0.703966 1.84088e-38
-0.028981 -0.0434126 -0.712325 1.93322e-38
-0.0421585 -0.0762696 -0.649801 1.52785e-38
-0.039956 -0.0713863 -0.651549 1.82288e-38
-0.0156954 -0.0285902 -0.627599 9.77499e-39
-0.0386478 -0.0678131 -0.658703 1.6843e-38
-0.0217679 -0.0382792 -0.691636 9.59131e-39
-0.00996062 0.0256437 -0.627042 9.5924e-39
-0.00825335 -0.0233844 -0.57851 8.02503e-39
-0.0348176 -0.058897 -0.704521 1.50041e-38
0.000311747 -0.00181884 -0.546813 8.11578e-39
-0.0156767 -0.0268055 -0.605845 1.01441e-38
-0.0277883 0.00087167 -0.722831 7.10493e-39
-0.00107849 0.0121764 -0.560547 1.44506e-38
0.00418046 0.00376476 -0.53862 8.20726e-39
0.000181247 0.0130796 -0.564182 9.66399e-39
-0.0277565 1.73024e-05 -0.720242 4.89042e-39
-0.019472 -0.0258947 -0.703874 2.24705e-38
-0.00702645 -0.0190193 -0.568834 8.75971e-39
-0.0149197 -0.0312853 -0.623607 1.03289e-38
-0.0170072 0.00982024 -0.676827 1.35257e-38
-0.027888 -0.0388442 -0.715918 1.15954e-38
0.00502486 0.0176742 -0.566877 9.76592e-39
0.00402809 0.0224372 -0.544873 2.12722e-38
-0.0202419 -0.0232277 -0.698575 8.2742e-39
-0.0147351 0.0135593 -0.638683 1.43602e-38
-0.0221796 -0.0441659 -0.694681 9.77498e-39
-0.0112764 -0.033548 -0.611223 9.77643e-39
-0.012905 -0.0325035 -0.61416 2.30388e-38
-0.0216964 0.00594205 -0.66892 1.47235e-38
0.0103699 0.0139718 -0.533989 9.12885e-39
-0.0360189 -0.0677337 -0.647442 1.53751e-38
-0.00465283 -0.0122106 -0.562981 8.48456e-39
-0.0181355 -0.0343411 -0.631574 1.00527e-38
-0.0293617 0.00516304 -0.718912 4.06064e-39
-0.0162302 -0.0243691 -0.626162 4.33764e-39
-0.0237691 -0.00349862 -0.705302 9.77353e-39
0.0132546 0.0160561 -0.536605 8.85442e-39
-0.0396281 -0.0679587 -0.662087 2.24716e-38
0.0498001 0.093164 -0.584263 7.1038e-39
-0.0212205 0.00724825 -0.672505 1.52778e-38
0.00986987 0.0257298 -0.557239 8.57712e-39
0.0512882 0.0930643 -0.548783 8.11722e-39
0.0130284 0.0246548 -0.543923 8.57712e-39
-0.018432 -0.030463 -0.677665 2.17347e-38
-0.0254909 -0.0321802 -0.720783 5.99569e-39
-0.0313111 -0.0430834 -0.657956 9.77536e-39
-0.00965306 -0.0338338 -0.574914 8.76187e-39
-0.0239035 -0.0299874 -0.705078 1.5831e-38
-0.0216884 0.006891 -0.671087 1.64756e-38
0.0473587 0.0919393 -0.592719 7.65589e-39
-0.0370685 -0.0636867 -0.66242 1.22375e-38
-0.0277166 -0.0535623 -0.685783 1.01438e-38
0.0491203 0.0953414 -0.592124 7.56405e-39
-0.0364774 0.0209278 -0.719813 1.0697e-38
0.000937289 -0.00198503 -0.54373 7.93175e-39
0.0477535 0.0898592 -0.585303 7.93211e-39
