# .PCD v.7 - Point Cloud Data file format
VERSION .7
FIELDS x y z rgb
SIZE 4 4 4 4
TYPE F F F F
COUNT 1 1 1 1
WIDTH 89
HEIGHT 1
VIEWPOINT 0 0 0 1 0 0 0
POINTS 89
DATA ascii
0.00751601 0.0193352 -0.543263 3.95793e-39
-0.0116345 0.0244653 -0.629091 2.35099e-38
-0.00541675 -0.0143322 -0.568251 2.22006e-38
-0.0299534 -0.0483798 -0.701249 1.31566e-38
-0.017887 -0.0363106 -0.642068 2.33128e-38
0.0119334 0.0237169 -0.546832 2.23832e-38
-0.0240287 -0.0335874 -0.714553 1.592e-38
-0.0265415 -0.0376824 -0.716259 1.67511e-38
-0.0213997 0.00657992 -0.679526 1.90574e-38
-0.035831 -0.0657197 -0.654357 1.89677e-38
-0.0345672 -0.0633539 -0.660484 1.49137e-38
-0.0242381 -0.0332348 -0.712174 1.57406e-38
0.00697239 0.019848 -0.567627 1.3901e-38
-0.0294194 -0.0531405 -0.695942 1.61148e-38
-0.0223449 -0.0372111 -0.721447 6.81278e-39
0.00101743 0.0146813 -0.562324 8.74095e-39
0.00864139 0.0200637 -0.568889 2.22054e-38
-0.0308586 -0.0522574 -0.697651 1.14027e-38
-0.0166914 -0.0228559 -0.634795 1.57394e-38
0.00244588 0.0142654 -0.56263 1.01232e-38
-0.0159371 -0.0200602 -0.611877 8.63974e-39
-0.0309702 -0.0537138 -0.695001 1.47257e-38
-0.00173826 -0.00610459 -0.564185 2.13655e-38
0.00607424 0.0186238 -0.568575 8.75898e-39
-0.0286436 -0.0431204 -0.719207 9.7562e-39
-0.0219317 -0.0299894 -0.710771 2.03529e-38
-0.0254733 -0.0327743 -0.700653 1.73029e-38
-0.0208322 -0.0402113 -0.692065 9.40763e-39
0.00477371 0.000129415 -0.589572 1.5742e-38
-0.031277 -0.0454896 -0.722792 6.18189e-39
-0.0288136 -0.0416206 -0.719353 9.48177e-39
-0.0113903 0.00399429 -0.596159 1.7309e-38
-0.0166087 -0.0280971 -0.633666 9.56025e-39
0.0147866 0.0246319 -0.548406 8.75755e-39
-0.0248013 -0.0359459 -0.705396 1.71167e-38
-0.0287992 -0.0429202 -0.719137 9.7562e-39
-0.0359474 -0.0614265 -0.67685 1.54565e-38
0.00733378 0.01483 -0.540179 2.35047e-38
-0.0191332 -0.0274319 -0.668895 1.00512e-38
-0.0175101 -0.0239615 -0.621524 9.22073e-39
-0.0183013 -0.0204861 -0.698819 1.53679e-38
0.000774198 -0.00538773 -0.555117 1.95224e-38
-0.0168611 -0.0294146 -0.628145 1.01438e-38
-0.0334397 -0.0578991 -0.696799 1.85039e-38
-0.000835809 -0.000845604 -0.546318 8.11578e-39
-0.0191695 -0.0221742 -0.606569 2.35098e-38
0.00271416 0.00606506 -0.541942 2.24769e-38
-0.0209078 -0.0390676 -0.692413 9.68242e-39
0.000557306 -0.000581182 -0.544903 8.30053e-39
-0.0314657 -0.0556827 -0.683273 1.55548e-38
-0.00103384 0.00120923 -0.549723 2.22904e-38
0.0049224 0.00692562 -0.536202 8.29981e-39
-0.0278544 -0.0523195 -0.695815 1.26178e-38
-0.0235666 0.00754288 -0.667215 1.34271e-38
-0.00768903 -0.0184348 -0.568624 8.57712e-39
0.0676476 0.0860295 -0.59694 2.02867e-39
-0.0376598 -0.0661268 -0.660551 1.94234e-38
-0.00904357 -0.0214536 -0.585627 8.39201e-39
-0.0190623 -0.0240568 -0.626199 7.01093e-39
-0.0130173 -0.0198051 -0.585082 8.20797e-39
-0.00908609 -0.0254175 -0.583139 8.20834e-39
-0.00411957 -0.00976033 -0.567782 1.82255e-38
-0.0365993 -0.0617218 -0.674749 1.73047e-38
-0.028655 -0.0448477 -0.711313 1.795e-38
0.0101432 0.0196205 -0.574063 8.2087e-39
-0.0311307 -0.0404736 -0.683485 9.68351e-39
0.0100775 0.0255664 -0.557476 8.2087e-39
-0.0116037 -0.0199325 -0.565971 8.5764e-39
0.0692358 0.0803613 -0.566132 8.02395e-39
-0.0227274 -0.0320326 -0.705447 1.18623e-38
-0.0157675 -0.0326412 -0.645696 1.03282e-38
-0.0213706 -0.03804 -0.640219 9.86862e-39
-0.0292629 -0.0589149 -0.676784 9.68387e-39
-0.0406879 -0.0677691 -0.68121 1.01438e-38
0.0171006 0.028509 -0.55357 8.85263e-39
-0.0338222 -0.0594723 -0.666136 8.73338e-39
-0.0216198 -0.0340784 -0.709721 1.43519e-38
-0.0198022 -0.0360019 -0.659007 1.02353e-38
-0.027264 -0.0371887 -0.72244 6.64286e-39
-0.0362602 -0.0614482 -0.717822 9.96009e-39
0.0627577 0.0774021 -0.600063 9.31653e-39
-0.0147022 -0.0298548 -0.616799 2.00813e-38
-0.0317262 -0.0594343 -0.676258 1.9253e-38
0.0688357 0.0823075 -0.594829 7.28783e-39
-0.0411138 -0.0575984 -0.700068 1.01449e-38
-0.000645166 -0.000642578 -0.542951 8.29981e-39
-0.033462 -0.00716958 -0.721002 8.024e-39
0.0605281 0.0813437 -0.584039 7.47257e-39
0.0594719 0.0763743 -0.601808 9.9601e-39
