# .PCD v.7 - Point Cloud Data file format
VERSION .7
FIELDS x y z rgb
SIZE 4 4 4 4
TYPE F F F F
COUNT 1 1 1 1
WIDTH 76
HEIGHT 1
VIEWPOINT 0 0 0 1 0 0 0
POINTS 76
DATA ascii
0.0106758 0.0148492 -0.539602 2.19222e-38
0.0101699 0.0156973 -0.53903 2.29425e-38
0.0110861 0.0271981 -0.553602 2.26578e-38
-0.02722 0.0024106 -0.712004 2.01702e-38
0.00462465 0.0152555 -0.557407 3.408e-39
-0.00423459 -0.00985252 -0.563013 8.30053e-39
-0.0194559 -0.0267794 -0.680712 1.29751e-38
0.0133381 0.0189087 -0.548418 2.20105e-38
-0.0391803 -0.074056 -0.64357 2.02577e-38
-0.0321192 -0.0597302 -0.680454 1.09508e-38
-0.0281009 -0.0495019 -0.703138 1.45417e-38
-0.036141 -0.0654389 -0.660251 1.95177e-38
-0.036804 -0.0713416 -0.647548 2.24733e-38
0.00457335 0.0180914 -0.558264 4.78841e-39
-0.0298939 -0.0535563 -0.698574 1.10397e-38
-0.037825 -0.062672 -0.68261 1.49087e-38
-0.000984227 0.0070263 -0.600234 2.26769e-38
-0.0242094 -0.0332795 -0.712012 1.52789e-38
-0.014007 -0.0212834 -0.609748 1.82305e-38
-0.0188204 0.0106709 -0.679794 1.8228e-38
-0.0026975 -0.00723551 -0.561684 1.88759e-38
-0.00731773 -0.0136483 -0.578305 2.12723e-38
-0.02748 0.00451513 -0.714628 1.65703e-38
-0.0204047 0.00888504 -0.691381 1.85032e-38
0.00595508 0.0188251 -0.560586 7.45488e-39
-0.0393911 -0.071183 -0.650932 2.02574e-38
-0.0252156 0.0181721 -0.720475 5.35356e-39
0.0065077 0.015786 -0.539687 2.35018e-38
-0.0287713 -0.0438371 -0.718217 1.20532e-38
-0.0323976 -0.0434608 -0.720859 5.62871e-39
-0.0176932 -0.0223128 -0.623961 9.59167e-39
-0.0343697 -0.067605 -0.655265 1.88734e-38
-0.0374016 -0.0665247 -0.658002 2.12705e-38
-0.025501 -0.0380634 -0.704997 1.88762e-38
-0.0301179 -0.043761 -0.718291 9.30027e-39
0.000656009 0.00327768 -0.595056 1.69453e-38
-0.0197939 0.00853069 -0.679081 1.77667e-38
0.00567203 0.0190891 -0.568421 8.39273e-39
-0.0158073 -0.021085 -0.609152 2.24776e-38
-0.00209286 0.00585267 -0.580265 1.38971e-38
-0.0161786 -0.025734 -0.629163 2.29455e-38
0.00379071 0.00479334 -0.543002 2.22007e-38
-0.0229729 0.0081775 -0.708102 1.19573e-38
-0.0323242 -0.0555325 -0.698833 1.44419e-38
-0.0204427 -0.0219202 -0.62298 9.68351e-39
-0.0207565 0.00970981 -0.695059 1.49108e-38
-0.0371833 -0.0700267 -0.642109 1.03278e-38
0.00317254 0.00461214 -0.538176 8.1165e-39
-0.0268487 0.0100654 -0.720427 4.06173e-39
-0.0360703 -0.0555229 -0.705798 1.4725e-38
0.000819361 -0.00283839 -0.547934 8.20834e-39
-0.00437446 -0.00745905 -0.55877 8.11614e-39
-0.00992894 -0.0203557 -0.584773 7.93175e-39
-0.0257189 0.00639194 -0.719168 1.30655e-38
-0.0337917 -0.0674563 -0.651864 1.02342e-38
-0.0291305 0.00868061 -0.721067 6.82763e-39
-0.00208545 -0.00626375 -0.55467 7.4733e-39
-0.0343207 -0.0542082 -0.699252 1.82277e-38
-0.0366504 -0.0718374 -0.646219 1.08665e-38
-0.0380461 -0.0698282 -0.674503 9.68315e-39
-0.0122211 -0.023992 -0.600856 9.13033e-39
-0.0332235 -0.0673766 -0.650955 1.03264e-38
-0.0193025 0.00910112 -0.675337 1.65675e-38
-0.0454537 -0.0836356 -0.643488 9.68316e-39
-0.0312469 -0.0512624 -0.699622 1.60154e-38
0.0789627 0.0709158 -0.547457 7.93319e-39
0.00648667 0.0197358 -0.563252 1.13192e-38
-0.00654062 0.00598024 -0.601098 1.38981e-38
-0.0308702 -0.0472308 -0.707787 1.93358e-38
-0.0205981 0.0197213 -0.723315 8.11765e-39
-0.0406132 -0.0614621 -0.693683 1.00527e-38
-0.0329965 -0.0484616 -0.718022 9.22144e-39
-0.0443398 -0.0835773 -0.646749 9.8679e-39
-0.0363403 -0.0767714 -0.639311 9.68423e-39
-0.0406148 -0.0657768 -0.669164 1.59355e-38
-0.0279223 -0.0141993 -0.72728 8.20804e-39
