# .PCD v.7 - Point Cloud Data file format
VERSION .7
FIELDS x y z rgb
SIZE 4 4 4 4
TYPE F F F F
COUNT 1 1 1 1
WIDTH 84
HEIGHT 1
VIEWPOINT 0 0 0 1 0 0 0
POINTS 84
DATA ascii
-0.00759659 0.00978366 -0.718979 2.16526e-38
-0.0161347 0.0182855 -0.719988 1.93685e-39
-0.0162534 0.0186212 -0.719739 1.93685e-39
-0.0125875 0.0138084 -0.718544 2.01771e-38
-0.041214 -0.0820959 -0.643091 2.28435e-38
-0.042074 -0.0804302 -0.64226 2.28435e-38
0.0169718 -0.00230619 -0.608405 5.61671e-39
-0.0235398 -0.0375782 -0.702058 1.40825e-38
0.034635 0.0174806 -0.607408 1.07764e-38
0.00426281 0.0158705 -0.557197 3.59275e-39
0.00174042 0.0166036 -0.550822 2.31223e-38
-0.0378252 -0.0614026 -0.685565 2.21939e-38
-0.0290247 -0.0477036 -0.701584 1.17794e-38
-0.0301977 -0.0529466 -0.698046 1.06749e-38
-0.0372204 -0.0704865 -0.646983 2.22882e-38
-0.0377299 -0.0628625 -0.682672 1.52785e-38
-0.0272395 -0.0393847 -0.714354 1.61061e-38
-0.0270964 -0.0398174 -0.714521 1.85039e-38
-0.031536 -0.0482176 -0.712384 1.67544e-38
-0.025818 -0.0356792 -0.710072 1.35247e-38
0.00976553 0.000881657 -0.605914 1.85212e-38
-0.0361234 -0.0593846 -0.687371 1.64738e-38
-0.02564 -0.0336437 -0.717262 9.66616e-39
-0.0353828 -0.0587964 -0.697292 1.62912e-38
-0.00933371 0.00728912 -0.715885 1.90621e-38
-0.0434505 -0.0783742 -0.647192 1.66633e-38
-0.00495831 0.00937073 -0.717548 7.93106e-39
-0.0354798 -0.0584988 -0.697278 1.57377e-38
-0.00070802 0.0150447 -0.547856 2.34965e-38
-0.033081 -0.0688851 -0.652947 1.10448e-38
0.00246954 0.00179906 -0.591321 1.22383e-38
0.0449303 0.0848669 -0.722348 1.43829e-38
0.0164677 -0.00415335 -0.594193 1.48319e-38
-0.0408014 -0.072775 -0.648421 1.76745e-38
0.016792 0.00896397 -0.716275 3.41199e-39
0.0084194 0.0206296 -0.563911 1.20549e-38
0.0152529 -6.5456e-05 -0.681003 1.41772e-38
-0.0079043 -0.0120437 -0.571073 6.18076e-39
-0.0283349 -0.0614056 -0.673451 9.95938e-39
-0.0366378 -0.0600149 -0.72318 1.28174e-38
-0.0389263 -0.0711273 -0.649123 2.0351e-38
-0.00202124 0.00573977 -0.580339 1.41736e-38
0.00150107 0.00212378 -0.630889 1.55591e-38
-0.0289037 0.00827622 -0.721856 7.47191e-39
-0.0156133 -0.0345678 -0.643159 1.40774e-38
-0.00363718 0.00469854 -0.560222 1.81323e-38
-0.0319414 -0.0703767 -0.651191 1.19779e-38
-0.0325781 -0.0682691 -0.649561 1.06055e-38
0.00741521 0.0208544 -0.560717 9.56819e-39
-0.0354945 -0.0572428 -0.707435 1.43671e-38
-0.0130834 0.0235436 -0.722309 8.39244e-39
-0.0370986 -0.0607832 -0.680909 1.73058e-38
-0.00157749 0.0163457 -0.551109 1.89635e-38
-0.00416006 0.00411442 -0.600605 1.85997e-38
-0.0189543 -0.0384546 -0.64055 9.9601e-39
-0.0282547 -0.0626867 -0.662557 9.68388e-39
-0.0357873 -0.0735831 -0.642798 9.77571e-39
0.0160008 0.00126869 -0.697198 1.4546e-38
-0.00690833 -0.00118108 -0.573833 1.97939e-38
0.0141793 -0.00185215 -0.66983 9.74934e-39
-0.0198202 -0.0385854 -0.642934 9.68316e-39
-0.0102942 0.0184231 -0.723453 8.39387e-39
-0.0406772 -0.0613366 -0.693946 9.77642e-39
-0.0398514 -0.0555963 -0.707526 9.49912e-39
-0.0388445 -0.0608923 -0.692659 1.59282e-38
-0.0308858 -0.0519747 -0.700203 1.85061e-38
-0.0163391 -0.0359516 -0.617661 9.95974e-39
-0.0354701 -0.0659828 -0.663641 1.3802e-38
-0.00393457 0.00587292 -0.566117 1.66561e-38
-0.0447634 -0.0820745 -0.639515 9.68459e-39
-0.0408714 -0.0703398 -0.669013 9.96045e-39
0.00598608 0.00109709 -0.611771 1.77837e-38
0.0126399 -0.00183296 -0.67283 5.70354e-39
0.0143076 0.0210834 -0.721305 8.76229e-39
-0.0339022 -0.0485052 -0.717018 9.77462e-39
0.0485839 0.0109417 -0.740777 1.01459e-38
-0.0404805 -0.0716748 -0.670106 1.00519e-38
0.0145143 0.0205418 -0.721811 8.48679e-39
-0.0251353 -0.039734 -0.723744 6.36446e-39
-0.0336604 -0.00342844 -0.719032 8.48425e-39
-0.0399751 -0.0601837 -0.719622 9.95974e-39
-0.0296149 0.00271713 -0.723075 7.93325e-39
-0.028941 0.000706077 -0.724419 8.57646e-39
0.0410919 0.0834221 -0.720406 1.06062e-38
