# .PCD v.7 - Point Cloud Data file format
VERSION .7
FIELDS x y z rgb
SIZE 4 4 4 4
TYPE F F F F
COUNT 1 1 1 1
WIDTH 69
HEIGHT 1
VIEWPOINT 0 0 0 1 0 0 0
POINTS 69
DATA ascii
-0.00795272 0.0107652 -0.718177 2.1376e-38
-0.0115492 0.0114028 -0.717256 2.12875e-38
0.0256533 0.00530926 -0.709511 1.81445e-38
0.0154143 -0.00375662 -0.606526 4.88096e-39
-0.0180515 0.0159972 -0.718644 2.35081e-38
0.00670555 0.0170151 -0.559633 4.60402e-39
-0.0291698 -0.0472425 -0.701067 1.20546e-38
-0.0249483 -0.0486337 -0.698173 1.14178e-38
0.0291947 0.00969636 -0.711401 1.50988e-38
-0.0333643 -0.0604604 -0.667033 7.54563e-39
-0.0283998 -0.050278 -0.699092 1.98897e-38
-0.0345822 -0.0645213 -0.666093 1.75805e-38
-0.0353275 -0.0583189 -0.67809 2.00731e-38
0.0187934 0.0110204 -0.71197 2.02603e-38
0.0213783 0.0131997 -0.712528 6.62874e-39
-0.0348113 -0.0639808 -0.66169 1.20517e-38
-0.0349244 -0.0603075 -0.698191 1.73083e-38
0.0275958 -0.00217918 -0.708145 1.01441e-38
0.0230023 0.0130181 -0.715353 3.96628e-39
0.00627694 0.0181459 -0.561045 6.25958e-39
-0.03725 -0.0606751 -0.69052 1.88756e-38
0.00814645 -0.00306619 -0.62514 1.20568e-38
-0.0220967 0.0168055 -0.716515 2.30308e-38
-0.036871 -0.0641853 -0.666774 1.64749e-38
0.00139093 0.00397885 -0.590384 1.35283e-38
-0.0237096 0.0168957 -0.720933 4.15212e-39
-0.0389095 -0.068705 -0.652886 1.52739e-38
-0.0278167 -0.0393093 -0.711664 1.8966e-38
-0.00260311 0.00659733 -0.572971 1.7586e-38
-0.00585359 0.00917999 -0.71591 8.11545e-39
-0.00113449 0.00782039 -0.570075 1.55544e-38
-0.00316726 0.0049333 -0.58531 1.62913e-38
0.00181558 0.00972445 -0.586998 1.23351e-38
-0.001935 0.00549018 -0.580545 1.62938e-38
-0.0089123 0.000183711 -0.583114 2.0069e-38
-0.0109709 0.00420788 -0.713846 8.85266e-39
-0.00385418 0.0102638 -0.721273 8.66792e-39
0.00483227 0.00233226 -0.60611 2.04606e-38
0.0143204 0.00153759 -0.58929 1.57542e-38
0.018632 -0.00518351 -0.679446 1.55591e-38
0.0151091 0.000311258 -0.680833 1.40832e-38
-0.0206848 0.00290322 -0.713688 1.42636e-38
-0.00165623 0.00485763 -0.586434 1.70303e-38
-0.0297283 0.0165145 -0.720988 8.76158e-39
0.0425724 0.0189049 -0.619376 9.59061e-39
-0.0271991 0.0139923 -0.72294 8.85341e-39
-0.0132347 0.0175067 -0.722682 6.6425e-39
-0.0171697 0.0201261 -0.724229 8.48607e-39
0.0417443 0.0197924 -0.611374 9.9601e-39
0.014286 -0.00570521 -0.618137 9.49912e-39
0.013397 -0.00140929 -0.666855 8.4586e-39
-0.0418661 -0.0694472 -0.658193 1.03289e-38
-0.0406037 -0.0615727 -0.694505 9.96082e-39
-0.00130297 0.00470739 -0.577312 1.57395e-38
-0.0332702 -0.0462558 -0.716328 9.68242e-39
-0.0389158 -0.0678382 -0.675321 9.49985e-39
-0.0328519 -0.0493768 -0.718594 9.68278e-39
0.0180739 0.00190674 -0.699321 1.44509e-38
-0.0443038 -0.0702136 -0.659935 1.01441e-38
0.0449273 0.0190896 -0.613383 9.59131e-39
-0.0367834 -0.058046 -0.724169 1.01423e-38
0.0241031 -0.00654551 -0.660595 1.04207e-38
-0.0168701 0.0233689 -0.724346 8.02474e-39
-0.0508829 -0.0438523 -0.724551 9.86791e-39
0.0274555 0.00909709 -0.639127 9.77572e-39
-0.0416768 -0.0664642 -0.677254 1.03282e-38
0.0433568 0.0787403 -0.721099 1.07892e-38
0.0418548 0.0832278 -0.720524 1.04211e-38
-0.0887964 -0.0139564 -0.589429 7.74844e-39
