# .PCD v.7 - Point Cloud Data file format
VERSION .7
FIELDS x y z rgb
SIZE 4 4 4 4
TYPE F F F F
COUNT 1 1 1 1
WIDTH 64
HEIGHT 1
VIEWPOINT 0 0 0 1 0 0 0
POINTS 64
DATA ascii
-0.0204064 0.0183921 -0.717607 2.35099e-38
-0.0205577 0.0188666 -0.718527 2.3046e-38
0.00393216 0.00264316 -0.603294 2.03698e-38
-0.00837148 0.0132572 -0.716226 2.34998e-38
0.00754892 0.0194119 -0.543587 1.43555e-38
-0.0160612 0.0180925 -0.720535 3.41164e-39
-0.0181072 0.0163419 -0.71842 2.35099e-38
0.011365 0.0152336 -0.538434 2.35033e-38
0.00529269 0.00905819 -0.540402 2.26642e-38
-0.0121639 0.00709743 -0.612467 8.83422e-39
-0.00482599 0.00699847 -0.603465 1.7403e-38
-0.0132206 0.0132802 -0.715678 2.33172e-38
0.0224299 -0.00451267 -0.604765 1.95281e-38
0.0142554 0.00164821 -0.719573 4.24251e-39
0.0158014 0.0010877 -0.72374 4.15212e-39
-0.0160573 0.0110929 -0.681491 1.48168e-38
-0.0160472 0.0115827 -0.676327 1.84125e-38
-0.0201842 0.00578819 -0.614902 1.74004e-38
-0.0123192 0.00563385 -0.609104 6.62693e-39
0.00262409 0.00514573 -0.59026 1.40897e-38
0.00358208 0.00429234 -0.596356 2.07386e-38
-0.0219681 0.015984 -0.717176 2.24787e-38
-0.00580606 0.00731801 -0.602952 1.3806e-38
0.00367887 0.0174522 -0.544362 2.29364e-38
-0.0105534 0.00622182 -0.603383 1.0672e-38
-0.00947452 0.00412639 -0.61952 1.45439e-38
0.00451676 0.00408628 -0.605061 2.23967e-38
-0.00522155 0.00364499 -0.631118 1.47228e-38
0.0165362 0.0114264 -0.545492 1.23402e-38
-0.0025235 0.00676885 -0.602506 1.61176e-38
-0.0029151 0.00405031 -0.622414 2.00734e-38
-0.0102283 0.00673664 -0.604512 1.29762e-38
-0.0121724 0.0106066 -0.669802 1.50056e-38
0.0196343 0.000583602 -0.679269 1.58331e-38
-0.00749753 0.00374493 -0.62644 9.01071e-39
0.00073789 0.00308302 -0.541806 7.74844e-39
-2.05476e-06 0.0118453 -0.559392 1.35258e-38
0.00654292 0.00178005 -0.611873 1.1975e-38
-0.016952 0.00177019 -0.595057 1.89624e-38
-0.0134266 0.0236521 -0.721461 8.11801e-39
0.0141255 -0.00134589 -0.660804 1.49116e-38
0.00419848 0.00386396 -0.602086 2.26758e-38
-0.00286049 0.00554914 -0.593321 1.47261e-38
-0.000380223 0.0060782 -0.580224 1.11348e-38
-0.0141636 0.00708475 -0.60338 1.51049e-38
-0.0148943 0.00505415 -0.599808 1.93373e-38
0.00328805 0.00303677 -0.635028 1.64753e-38
-0.00360588 0.00343902 -0.628097 1.17776e-38
0.0177361 0.0132613 -0.545406 8.76151e-39
0.0383696 0.0032739 -0.711814 1.02363e-38
-0.00906381 0.00644426 -0.606435 1.32506e-38
-0.0125252 0.0171057 -0.723677 7.74814e-39
0.00276012 0.0020298 -0.636071 1.83224e-38
0.0256186 -0.00616476 -0.684626 9.95829e-39
0.0464948 0.00913408 -0.691684 1.0143e-38
0.00362999 0.00288677 -0.63951 1.55541e-38
0.0488874 0.00845826 -0.687268 1.01438e-38
0.0181297 0.00161212 -0.699494 1.57417e-38
0.0487308 0.00672601 -0.727791 1.06059e-38
0.0436981 0.004204 -0.726293 1.033e-38
0.0241758 -0.00738042 -0.666389 1.04196e-38
0.0264919 -0.00230684 -0.68358 1.0143e-38
-0.00887118 0.00381602 -0.585979 2.34868e-38
0.00344189 0.00690379 -0.532995 7.93211e-39
