# .PCD v.7 - Point Cloud Data file format
VERSION .7
FIELDS x y z rgb
SIZE 4 4 4 4
TYPE F F F F
COUNT 1 1 1 1
WIDTH 82
HEIGHT 1
VIEWPOINT 0 0 0 1 0 0 0
POINTS 82
DATA ascii
0.022762 0.009985 -0.710616 2.35099e-38
0.0309421 0.00402913 -0.709857 2.33215e-38
0.00393305 0.00233085 -0.60332 2.26754e-38
0.0354088 0.00436158 -0.710229 2.35084e-38
-0.0160557 0.0183117 -0.720556 4.70637e-39
-0.0181122 0.0161037 -0.718579 2.35099e-38
0.0129354 -0.00212535 -0.600593 1.70443e-38
0.0244338 0.00446687 -0.730989 7.19677e-39
-0.00450061 0.0044633 -0.615859 1.24255e-38
0.0121492 6.95893e-06 -0.59748 2.09147e-38
-0.00482476 0.00737896 -0.603219 1.81431e-38
-0.00533624 0.00438467 -0.61922 1.70328e-38
-0.0226464 0.0205839 -0.720554 5.99857e-39
-0.0160622 0.010853 -0.676942 1.85043e-38
-0.0057531 0.00452765 -0.61454 1.64782e-38
0.0178498 0.0091163 -0.707946 1.71235e-38
-0.00234983 0.00404649 -0.619497 1.7399e-38
0.00892566 0.000754171 -0.609774 1.91681e-38
-0.0160601 0.0109141 -0.681643 1.72154e-38
-0.00908212 0.00676062 -0.600667 1.4348e-38
0.00123641 0.00502691 -0.589868 1.66618e-38
0.00262331 0.00459218 -0.590554 1.51914e-38
-0.00482113 0.00441139 -0.626453 1.37141e-38
0.0187662 -0.00598396 -0.599188 1.70417e-38
0.0011531 0.00327568 -0.628159 1.91508e-38
-0.00526328 0.00662938 -0.609337 1.399e-38
0.0194169 -0.00179984 -0.596693 1.64874e-38
-0.0161512 0.0187771 -0.725832 8.11729e-39
-0.00252679 0.00681439 -0.602546 1.91655e-38
-0.010552 0.00643476 -0.603175 1.0578e-38
0.0218224 -0.00395013 -0.677466 1.786e-38
0.000948138 0.00338942 -0.628891 1.97054e-38
0.00053667 0.00503438 -0.589024 1.27878e-38
-0.012678 0.00645046 -0.600336 1.29854e-38
0.0343984 -0.00190047 -0.709276 9.77426e-39
0.00743154 -0.00188089 -0.614064 1.49227e-38
-0.00522027 0.00386124 -0.630987 1.62913e-38
0.00451222 0.00469254 -0.604683 2.25825e-38
0.00197306 0.00280839 -0.629378 2.19184e-38
0.0163384 -0.00101047 -0.673787 1.4725e-38
-0.00638829 0.00518079 -0.633585 1.61065e-38
0.0226184 0.00978379 -0.717559 4.05776e-39
-0.004887 0.00449806 -0.621021 1.79493e-38
-0.0146006 0.0108418 -0.663424 1.41682e-38
0.0196342 0.000489623 -0.679303 1.68441e-38
0.0211751 0.000443049 -0.682413 1.03022e-38
-0.00290754 0.0047692 -0.621931 2.03507e-38
0.019899 0.000825828 -0.691513 1.62938e-38
0.0228211 0.0110492 -0.716386 4.14994e-39
-0.00750698 0.00276602 -0.627034 9.93085e-39
-0.0140296 0.0105644 -0.675268 1.35279e-38
-0.0141739 0.00650529 -0.603709 1.48276e-38
-0.0154088 0.00696429 -0.603345 1.88756e-38
-0.00106201 0.00427031 -0.588119 1.53729e-38
0.00899203 0.000471361 -0.598076 2.30406e-38
-0.0102322 0.00600228 -0.605056 1.47286e-38
-0.0162247 0.0103519 -0.695281 1.5097e-38
0.00399699 0.00209077 -0.619931 1.63889e-38
0.0174885 0.00148964 -0.688139 1.16786e-38
0.00603629 0.00173889 -0.617091 1.47319e-38
-0.00244303 0.00610171 -0.594157 1.9338e-38
0.00419705 0.00378729 -0.602141 2.35063e-38
-0.00402574 0.00717709 -0.591164 1.74012e-38
-0.00906039 0.00678268 -0.606181 1.19574e-38
0.0108235 -0.00131997 -0.602393 1.9718e-38
-0.0125132 0.017513 -0.723426 8.29988e-39
0.0375811 0.00125607 -0.715389 9.86717e-39
0.0177561 0.000464407 -0.684706 1.38978e-38
-0.000287736 0.00385235 -0.620504 1.51835e-38
0.0491533 0.00322199 -0.687997 9.59168e-39
0.0112661 0.000715216 -0.710711 8.76045e-39
-0.00503507 0.007708 -0.597122 1.73104e-38
0.00130843 0.00371177 -0.637749 1.6382e-38
-0.00940441 0.00390365 -0.628654 1.52811e-38
0.0171004 -0.00304485 -0.667432 1.43555e-38
0.0205127 0.0113337 -0.720818 6.55068e-39
-0.00746008 0.00685076 -0.590849 2.06251e-38
0.0403776 0.00221445 -0.715025 1.05118e-38
-0.0548886 0.00622096 -0.728532 1.12519e-38
0.0398115 0.00679261 -0.719823 1.03282e-38
-0.040364 0.0211147 -0.726364 1.04218e-38
0.0322858 0.0104292 -0.578492 8.76079e-39
